0.145326 -0.513448 -0.176472
0.243290 -0.658673 -0.140255
0.136382 -0.513448 0.129828
0.141127 0.519288 -0.141095
0.072304 0.406082 0.045721
0.015029 -0.227115 0.078999
-0.009766 0.058001 0.077844
0.284419 -0.658673 -0.288628
0.002621 0.169318 0.079482
0.207199 -0.559113 0.300247
0.128550 0.519288 -0.048736
0.230378 -0.658673 0.075745
0.265377 -0.658673 -0.241977
0.188975 0.557457 -0.255015
0.230273 0.634132 -0.198874
0.078225 -0.428333 0.036525
0.201866 0.585318 0.236001
0.149000 0.519288 -0.206579
0.277827 0.715153 0.077907
0.139972 -0.513448 0.189455
0.222126 -0.658673 0.026595
0.198507 -0.555376 -0.298139
0.261094 -0.618656 -0.334923
0.244360 -0.658673 -0.190685
0.127459 0.519288 0.101338
-0.017598 -0.026946 -0.076996
0.258700 0.687775 -0.142984
0.268568 0.704592 -0.110609
0.168714 -0.525521 -0.279264
0.121748 0.519288 -0.078781
0.281144 0.726784 0.049165
0.079023 -0.445151 -0.035866
0.247909 -0.658673 0.222501
0.044653 -0.362597 0.070370
0.264621 -0.658673 0.273919
0.286204 0.735077 -0.001959
0.055340 -0.394594 -0.064399
0.216479 -0.658673 -0.070215
0.072997 0.438183 0.044798
0.259078 -0.626151 0.336632
0.057146 0.402932 -0.062992
0.065166 -0.422812 -0.056295
0.177721 0.558108 0.261511
0.219628 -0.586197 -0.323292
0.166615 -0.526696 0.292773
0.113476 -0.513448 0.092373
-0.012748 0.163754 -0.078697
0.208395 0.617441 -0.225894
0.030188 0.335432 -0.077626
0.002495 0.240807 -0.080712
0.082130 0.466086 -0.028392
-0.028116 -0.035386 0.071399
0.150113 0.519288 0.267284
0.254627 0.700540 0.141523
-0.014175 -0.180526 0.077172
0.076986 -0.466713 0.039528
0.081206 0.475807 0.029324
0.222357 0.653994 0.199113
0.216962 -0.658673 -0.160662
0.235227 0.676417 0.174863
0.085174 -0.486343 -0.020015
0.102075 -0.513448 -0.063706
-0.020243 -0.169189 -0.075904
0.206863 -0.658673 0.116580
0.150847 0.523004 -0.286424
0.098023 -0.513448 -0.005213
0.111019 0.519288 -0.132277
0.100018 0.519288 0.017126
0.267098 -0.642002 -0.361734
-0.029418 -0.124385 -0.072104
0.013055 -0.322559 0.079272
0.025065 -0.359742 -0.078928
0.040328 -0.400704 0.072154
0.192103 -0.658673 -0.016257
0.127984 -0.513448 -0.255918
0.250596 -0.658673 0.307028
0.129705 -0.513448 0.262078
0.123890 0.519288 0.229241
0.029201 0.376856 0.076773
-0.040042 -0.078972 -0.065344
0.273271 0.747969 -0.077185
0.188807 -0.658673 0.043874
0.104427 -0.513448 -0.169564
0.217213 -0.658673 -0.218777
0.055361 0.445301 -0.064378
0.086245 0.509651 -0.011890
0.094727 -0.513448 -0.117244
0.213980 -0.658673 0.215468
0.108773 -0.513448 0.200750
-0.043128 -0.089554 0.061720
0.255971 0.728968 0.123383
0.040265 -0.419347 -0.073448
0.054962 0.453237 0.063420
0.171633 0.593191 0.257186
0.158637 -0.548258 -0.310694
0.024519 0.383932 -0.079012
-0.001473 0.310868 -0.080187
0.185049 -0.575909 0.333629
0.080513 -0.513112 0.031046
0.098086 0.519288 0.164303
-0.041847 -0.151511 0.062686
0.198423 -0.658673 0.189812
0.084041 0.519288 0.067262
0.273775 0.764261 0.047758
0.087001 0.519288 0.103269
-0.053688 0.032450 0.051642
-0.040189 0.169213 0.063966
-0.049510 0.101713 -0.058058
0.048118 -0.452352 0.068669
0.180430 -0.658673 -0.100070
0.186602 -0.658673 -0.142732
0.219754 -0.658673 -0.273974
-0.054507 0.064489 0.050571
-0.024631 0.252165 0.072826
0.224121 0.693864 -0.188103
0.083180 -0.513448 0.126679
0.205015 -0.604127 0.352798
-0.057992 -0.002843 0.046015
-0.032084 -0.229844 -0.071012
0.143961 0.559704 0.279882
0.145893 -0.543135 0.317400
0.224184 -0.626109 0.363086
-0.013189 0.306543 0.077382
0.169974 -0.658673 0.068207
0.180703 -0.658673 0.154288
-0.034709 -0.231965 0.068165
-0.055263 0.119433 0.049584
0.225906 -0.658673 -0.312290
0.118053 0.519288 0.288616
0.181102 0.635518 -0.242523
-0.063073 -0.042356 0.039108
0.273565 0.779251 -0.032528
0.053156 -0.485671 0.064806
0.209991 -0.614226 -0.367990
-0.065929 0.003203 -0.033494
0.197121 -0.658673 -0.244790
0.108332 0.519288 -0.271916
0.036066 -0.452667 -0.075190
0.240371 0.734196 -0.154238
-0.027192 0.282545 -0.073028
-0.047432 0.201147 -0.059654
-0.042183 0.226446 0.062413
0.207661 -0.658673 0.283157
-0.029775 -0.277902 0.070706
0.107744 -0.513448 -0.290329
0.257902 0.764177 0.100099
0.160820 -0.658673 0.098293
-0.069666 -0.056738 -0.024466
0.063003 0.519288 0.022543
0.069323 -0.513448 -0.136791
-0.054906 -0.183613 -0.051298
-0.061373 0.147210 -0.042879
0.093068 0.519288 -0.240759
-0.071996 0.032450 -0.013149
0.097310 0.519288 0.256850
0.267875 0.781057 -0.073133
0.153073 0.602177 -0.269628
-0.069918 -0.087391 -0.023857
-0.009535 -0.357600 0.077865
0.059182 0.519288 -0.030827
-0.073109 0.067323 -0.004751
0.238524 0.745617 0.147464
0.270688 0.790820 0.030479
-0.071975 0.099719 -0.013359
0.183390 0.662959 0.230291
0.057041 -0.513448 0.084353
0.064158 0.519288 -0.122010
0.248559 0.761153 -0.130135
0.147719 -0.658673 0.028190
0.155655 -0.574901 0.344631
-0.071849 0.116977 0.012969
0.062877 0.519288 0.123824
-0.068490 0.146118 0.026070
0.209760 -0.658673 0.325210
0.209361 0.708162 0.197979
0.064410 -0.513448 0.165688
-0.016905 0.355588 -0.077290
-0.072437 -0.129025 -0.009706
0.073732 -0.513448 -0.212898
0.143415 -0.658673 -0.031793
0.152821 -0.658673 0.130584
-0.029271 -0.323042 0.070916
-0.058622 -0.214749 -0.046469
-0.063640 -0.194761 0.037743
0.007555 -0.423567 0.079986
0.113266 -0.534884 -0.313739
-0.071345 -0.157662 0.016853
0.153850 -0.579394 -0.349934
0.143205 -0.658673 -0.079893
0.238713 -0.657287 -0.404312
-0.045815 0.279732 0.059641
0.047740 -0.513448 -0.074372
0.220804 0.734028 0.174443
0.180787 -0.658673 -0.270341
0.066257 0.519288 -0.198937
0.221266 -0.658673 0.375305
-0.069267 0.193714 0.024159
-0.037564 -0.317667 -0.067233
-0.012748 -0.387855 -0.078697
0.140119 0.609547 0.270539
0.075558 -0.513448 0.262518
0.119984 0.574401 -0.288901
-0.065068 0.230477 -0.035551
0.186770 -0.658673 -0.309162
-0.064039 0.241374 0.036798
0.153430 -0.658673 -0.204584
0.178561 -0.658673 0.290421
0.060169 0.519288 0.200813
-0.034982 0.343012 0.067955
-0.061520 0.263902 -0.042690
-0.073340 -0.218738 0.001589
0.000332 -0.443450 -0.080418
0.126955 -0.658673 0.081581
0.002873 0.449668 0.079503
0.100879 0.552167 0.299386
0.048873 0.519288 0.171105
-0.014721 0.411036 0.076941
0.012573 -0.472591 -0.080586
0.035331 0.519288 -0.070403
0.038040 -0.513448 0.127897
-0.069246 -0.252099 -0.025495
0.031342 0.519288 0.009316
-0.019970 0.402680 -0.076030
-0.065971 -0.266565 0.032137
0.184146 -0.629258 0.386475
0.261681 0.815027 -0.068766
0.145641 -0.658673 0.232096
0.156348 -0.605386 0.374339
0.246544 0.800142 0.108602
0.027773 0.519288 0.074044
0.236088 0.787419 0.136694
0.212972 0.754540 -0.183547
0.053093 -0.513448 -0.250879
-0.072815 0.269843 0.005725
0.049881 0.519288 -0.228225
0.041189 -0.513448 -0.209329
-0.003993 -0.461548 0.078600
0.187085 -0.658673 -0.364190
0.138964 0.643937 -0.267087
0.143814 -0.658673 -0.249367
-0.067419 -0.299464 0.028631
0.083747 -0.535157 -0.322851
0.126808 -0.658673 -0.186045
0.107177 -0.658673 -0.014535
-0.036304 -0.393061 0.066948
-0.073550 -0.285398 -0.001371
-0.071618 0.292749 -0.016005
0.050574 0.519288 0.252126
0.205456 -0.654641 -0.418232
-0.066454 -0.311768 -0.032234
-0.055767 -0.346347 -0.050164
0.155130 0.678264 -0.252328
0.029537 -0.513448 0.181057
0.083915 -0.536585 0.333566
-0.043905 0.381706 0.061111
0.002327 0.490021 0.079440
0.018745 0.519288 -0.110211
-0.040650 -0.396924 -0.064861
-0.058517 -0.357747 0.045322
0.151351 -0.658673 0.311773
0.110621 -0.658673 0.172260
0.046837 -0.513448 -0.291253
0.187568 0.744609 0.206146
-0.017157 0.465603 -0.077185
0.103314 -0.658673 -0.140528
-0.071157 0.333270 0.018281
0.164536 -0.658673 0.356367
0.096722 -0.658673 -0.100007
0.013181 -0.513448 -0.149556
0.236802 0.812739 -0.132298
-0.073382 -0.329740 0.001295
0.151960 0.694263 0.246373
0.056390 0.524243 0.314398
0.117360 -0.588443 0.373625
-0.071220 0.342781 -0.019091
0.105645 0.621262 0.282254
0.013580 0.519288 -0.153230
0.016688 -0.513448 -0.190391
0.099997 -0.570954 -0.361671
0.248349 0.833314 -0.093960
0.179590 -0.658673 0.407050
0.029579 -0.513448 0.262120
-0.034184 -0.450420 -0.069816
0.092775 -0.658673 0.143307
0.123764 0.663295 0.265521
0.152338 -0.627473 -0.408049
0.212637 0.793633 -0.171685
0.081542 -0.658673 -0.051235
0.045262 0.519288 -0.314641
0.038733 -0.513448 0.312214
0.089520 0.608035 -0.294780
0.014315 -0.513448 0.225504
0.077259 -0.658673 0.028400
0.009465 0.519288 0.189308
-0.008528 0.519288 -0.017852
0.235941 0.830585 0.118092
-0.003573 -0.513448 0.135875
-0.069246 -0.383487 -0.025495
-0.004958 0.519288 0.107132
-0.070989 -0.381220 0.019498
0.156222 0.726049 0.234952
-0.062213 0.406522 0.040536
0.255026 0.860461 0.042803
-0.055725 -0.429572 -0.050227
-0.025555 -0.497114 0.072448
0.005182 -0.513448 -0.228498
0.090234 -0.658673 -0.210232
0.018325 0.519288 0.270182
0.007786 0.519288 0.228905
-0.018647 -0.513448 -0.084806
0.070289 -0.658673 0.104382
-0.050266 0.452061 -0.057344
0.115239 -0.658673 0.310556
-0.020096 0.519288 -0.056715
-0.046907 0.465645 0.058822
0.164074 -0.658673 -0.430346
0.155172 0.740095 -0.237631
-0.062129 -0.434170 0.040619
0.123973 -0.622750 0.404656
0.054185 0.577403 -0.306243
0.067727 -0.567091 0.364199
-0.024358 -0.513448 0.103962
0.255005 0.877089 -0.025453
-0.073550 0.417083 -0.001266
0.182109 0.786726 0.199533
0.092628 -0.658673 -0.266478
-0.017829 -0.513448 0.169383
0.090927 -0.658673 0.265794
0.002495 0.519288 -0.257744
-0.026206 -0.513448 -0.120540
-0.040147 0.495626 -0.065260
-0.073445 -0.427850 -0.002211
0.145452 -0.658673 0.414860
0.010809 -0.513721 -0.308112
0.059623 -0.567259 -0.362952
0.238104 0.865227 0.094577
-0.070233 0.439527 0.021871
0.125275 0.712528 -0.259025
-0.036262 0.519288 -0.004268
0.252737 0.885949 0.021073
0.033211 -0.540322 0.343497
-0.066664 0.453762 -0.031730
0.102789 -0.611727 -0.408049
0.249567 0.882800 -0.058226
0.051897 -0.658673 -0.115732
0.190654 0.808981 -0.194045
0.093845 0.669047 -0.280755
0.073879 -0.658673 0.239361
0.008688 0.519288 0.312823
0.128529 0.728317 0.249249
0.041693 -0.658673 -0.005675
-0.026710 0.519288 -0.171916
0.004216 -0.513448 0.315259
0.218263 0.850215 -0.146574
-0.060890 -0.478785 0.042257
0.059728 -0.658673 0.197664
0.039656 0.585381 0.304152
-0.033617 -0.513448 -0.162720
0.021076 0.549143 -0.315796
-0.062045 -0.479793 -0.041997
-0.040986 0.519288 0.096530
-0.073403 0.459514 -0.002400
-0.027570 0.519288 0.199764
-0.036934 0.519288 0.144966
0.098107 -0.658673 0.344589
-0.073004 -0.465852 -0.005549
0.033736 -0.658673 -0.056211
0.044863 0.606041 -0.302191
0.081584 -0.658673 -0.307629
-0.049258 0.519288 0.045868
0.066237 -0.593083 0.388742
0.034702 -0.658673 0.096005
0.216437 0.861889 0.137471
0.114757 -0.635935 -0.433916
-0.034856 -0.513448 -0.205214
-0.025849 -0.513448 -0.259949
0.037116 -0.569254 0.370119
0.023532 -0.555796 -0.354742
-0.071178 0.494052 0.018050
-0.051715 -0.513448 0.154876
-0.060428 -0.513448 0.074989
0.104763 -0.658673 -0.402024
-0.033302 -0.513448 0.258277
0.233023 0.895271 -0.099482
-0.064522 0.514900 -0.036874
0.221476 0.882338 -0.132298
0.001361 0.554245 0.314104
0.026366 -0.658673 0.156450
0.040349 0.631655 0.294662
0.013328 -0.658673 0.014858
0.014735 -0.658673 0.069383
-0.034982 0.519288 0.262455
0.040496 -0.658673 0.235687
0.058321 -0.658673 0.304950
0.017485 -0.658673 0.120821
-0.007142 -0.537173 -0.333348
0.065628 0.682253 0.281057
0.242450 0.917001 -0.060515
0.151603 0.806356 -0.224635
0.010851 0.588278 -0.309938
-0.067230 0.519288 -0.115459
0.176483 0.841481 0.189812
0.239007 0.917568 0.064827
-0.075587 -0.513448 -0.073301
0.078435 -0.626802 -0.428646
-0.078757 -0.513448 -0.002925
-0.046991 0.519288 -0.248947
0.124687 0.775850 -0.246575
0.185385 0.855716 -0.187011
-0.065131 0.519288 -0.166289
0.039342 -0.594133 -0.396523
-0.075880 -0.513448 -0.112499
0.054605 -0.658673 -0.327847
-0.040251 -0.513448 -0.299504
-0.029187 -0.521825 0.324434
-0.076258 -0.513448 0.123950
0.073354 -0.658673 -0.381784
0.007261 -0.563354 0.368356
0.084586 0.730458 0.266991
-0.064522 0.519288 -0.208426
-0.066853 0.519288 0.196509
0.138103 0.809947 0.227330
-0.007079 -0.658673 -0.050227
-0.089275 -0.513448 0.027518
-0.078610 -0.513448 -0.156925
0.014777 -0.658673 -0.217895
0.050490 0.684227 -0.287033
0.090045 -0.654200 0.443015
0.026576 -0.658673 -0.266247
-0.075859 -0.513448 0.181918
-0.031056 0.541270 -0.314117
-0.049028 0.519288 -0.293016
0.063696 -0.658673 0.383745
-0.043674 0.519288 0.314692
0.031426 0.660061 0.290064
0.096323 -0.657056 -0.460873
-0.003489 -0.658673 0.165478
0.075390 0.733629 -0.274666
0.048034 -0.623149 0.419227
0.014525 -0.658673 0.260272
-0.083754 -0.513448 -0.192260
0.241967 0.950174 -0.013968
-0.016191 -0.658673 -0.116866
-0.011362 -0.658673 -0.153419
0.006484 -0.584622 -0.390098
-0.090850 0.519288 0.149921
-0.006134 0.615026 -0.303976
-0.026500 -0.554851 -0.351614
0.173186 0.877467 0.183114
0.051267 0.714901 0.276312
0.018619 -0.658673 0.304425
-0.009158 -0.658673 0.195481
0.034114 -0.658673 0.352462
-0.105337 0.519288 -0.015942
-0.103132 0.519288 -0.071579
-0.104182 0.519288 0.061846
-0.075880 0.519288 0.256010
-0.082536 -0.513448 -0.240129
0.089835 0.775724 0.254876
-0.030342 -0.658673 0.054056
-0.140756 -0.441434 0.059872
0.002138 0.647359 0.295460
0.224415 0.945597 0.085255
-0.034730 -0.658673 0.014249
-0.081759 -0.513448 0.270896
-0.079114 0.519288 -0.272903
-0.096624 0.519288 -0.195451
-0.036724 -0.658673 -0.055350
-0.058433 0.544692 0.308162
0.206842 0.933504 0.126112
0.011859 0.673435 -0.294108
-0.060533 0.543916 -0.309771
0.017234 0.686410 0.286579
-0.144619 -0.458525 0.028400
-0.110901 -0.513448 0.155527
0.043667 0.728527 -0.279789
0.075076 0.772470 -0.267549
0.055865 -0.658673 0.445828
-0.040293 -0.658673 0.097538
0.136382 0.856766 0.216665
0.000269 -0.602342 0.405790
0.149063 0.870833 -0.211303
-0.024001 -0.658673 -0.213990
-0.160050 -0.432763 0.014039
0.039698 -0.658673 -0.421906
0.185301 0.917631 -0.168325
-0.085664 0.519288 0.292920
-0.125933 -0.513448 -0.083819
0.228782 0.971106 0.047968
-0.043926 -0.564698 0.363842
0.116835 0.839907 -0.236980
-0.127466 0.519288 -0.036496
-0.148251 -0.467091 0.076857
-0.130867 -0.513448 0.014018
-0.036409 -0.574062 -0.372882
-0.111677 -0.513448 0.210366
-0.111006 -0.513448 -0.215670
0.041567 0.743203 0.271819
-0.129523 -0.513448 0.080112
0.014189 -0.626424 0.426596
-0.104203 0.519288 -0.243656
-0.088478 0.519288 -0.307125
-0.075775 -0.533331 0.329178
-0.107772 0.519288 0.233272
0.220699 0.971106 -0.036118
0.222378 0.971106 -0.066561
-0.139643 -0.500851 0.051432
-0.047453 -0.658673 0.149123
0.059497 0.774632 0.263064
-0.136536 -0.513448 -0.018608
-0.110019 -0.513448 0.246016
0.046921 -0.656552 -0.467067
-0.106597 -0.513448 -0.264169
0.090360 0.818828 -0.252181
-0.046844 -0.658673 -0.181636
-0.128264 0.519288 -0.148842
-0.021944 -0.598437 -0.403283
-0.134247 -0.513448 -0.130471
0.000311 -0.658673 -0.366521
-0.141785 -0.513448 -0.055854
-0.141890 0.519288 0.058465
-0.020831 -0.658673 0.320528
-0.007814 -0.658673 0.361385
0.089541 0.832663 0.242489
-0.174684 -0.441392 0.096089
-0.028620 -0.658673 -0.306768
0.202223 0.971106 -0.097655
-0.148755 0.519288 0.013158
-0.077686 -0.555817 -0.346260
-0.038236 -0.596653 0.395482
-0.051568 -0.658673 0.226827
0.023448 -0.658673 0.451938
-0.112160 -0.523043 -0.292638
-0.047663 -0.658673 -0.254847
0.061890 0.807490 0.256073
-0.140567 0.519288 0.167410
-0.020348 0.688783 -0.288670
-0.145186 -0.513448 -0.164147
-0.058580 0.628967 -0.294528
-0.137481 0.519288 0.200792
0.186938 0.971106 -0.005948
-0.094293 0.568543 0.293004
0.004426 -0.658673 0.426534
-0.148650 0.519288 0.134594
-0.044325 0.657815 -0.291148
0.185532 0.971106 0.053805
-0.114890 0.530982 0.292479
-0.194735 -0.432763 0.006544
-0.018479 0.707721 0.280616
-0.050623 -0.658673 0.281687
0.033757 0.780952 -0.271433
-0.081843 -0.565999 0.359916
-0.153899 -0.513448 0.163232
-0.052471 0.658235 0.286096
0.182991 0.971106 0.113347
0.185973 0.971106 -0.133809
-0.178589 -0.484307 0.002366
0.129411 0.908078 0.208876
-0.092740 -0.658673 -0.032948
0.101823 0.876355 -0.235888
-0.085853 -0.658673 -0.135783
-0.076489 0.624705 0.288406
-0.091123 -0.658673 -0.094443
-0.167630 -0.513448 -0.103177
-0.019760 -0.658673 0.405664
-0.096141 -0.658673 0.059095
-0.022007 -0.632071 -0.442734
-0.156334 -0.513448 0.208855
-0.000004 0.754918 0.273541
-0.147537 -0.513448 -0.258689
0.159497 0.952525 -0.183904
-0.088058 -0.658673 -0.172839
-0.045353 -0.658673 -0.349326
-0.041007 -0.623022 0.420592
-0.158140 0.519288 -0.197908
0.163886 0.971106 -0.091609
0.134177 0.927121 -0.209371
-0.044996 -0.658673 0.358635
0.147467 0.945240 0.185487
-0.022427 0.728968 -0.281070
-0.177854 0.519288 0.063000
-0.055788 0.685172 -0.284660
-0.104224 0.604634 -0.284072
-0.090178 -0.581053 -0.374268
-0.178589 -0.513448 0.117231
-0.100046 -0.658673 0.153343
0.072955 0.863379 -0.250438
-0.158770 0.519288 -0.235846
0.148790 0.971106 -0.022324
-0.178925 0.519288 -0.099377
-0.153332 0.519288 0.269657
-0.132022 0.558822 -0.281448
0.008542 0.786621 0.267347
-0.093349 -0.658673 -0.217034
-0.092719 0.635161 -0.282918
-0.175482 0.519288 -0.162111
0.154963 0.971106 -0.145063
-0.207521 -0.463333 0.093360
-0.115478 -0.658673 -0.076429
-0.149112 -0.527221 0.293214
-0.024673 -0.658673 0.448243
-0.113021 -0.570345 -0.352706
-0.190242 0.519288 -0.047729
0.139909 0.971106 0.090252
-0.040189 -0.658673 -0.419114
0.104532 0.916644 -0.226692
-0.085979 0.661867 0.276543
-0.163935 0.519288 -0.268809
-0.195239 0.519288 0.021682
-0.061016 -0.624093 -0.428436
-0.187848 0.519288 0.139444
-0.089359 -0.658673 0.283535
-0.198661 -0.513448 -0.029211
-0.081276 -0.658673 -0.313487
-0.170464 -0.513574 0.261931
0.057817 0.869363 0.244043
-0.108234 -0.658673 0.205558
-0.133869 -0.558630 -0.329233
-0.114932 -0.577946 0.362078
0.131259 0.971106 -0.108510
-0.180017 0.519288 0.220213
0.017255 0.824454 0.258508
-0.021692 0.774696 0.266697
0.122147 0.971106 0.043958
-0.131707 -0.658673 0.061699
-0.207521 -0.510446 0.005788
-0.230091 -0.448468 0.072889
0.119585 0.971106 -0.059276
-0.100277 -0.658673 -0.280524
-0.192488 0.519288 0.187187
-0.034772 -0.658442 -0.472043
-0.202419 -0.513448 -0.137987
-0.076405 0.705642 0.271190
-0.134730 0.612780 0.266823
-0.210922 -0.510740 0.091932
-0.207626 0.519288 0.090735
-0.197086 -0.513448 -0.199818
-0.112727 -0.658673 0.256430
-0.060596 0.733461 -0.275233
-0.139349 -0.569170 0.342384
-0.142330 -0.658673 -0.023962
-0.213106 -0.513448 -0.067968
-0.131035 -0.658673 0.180448
-0.169540 0.557877 -0.259487
0.023091 0.853911 0.251748
-0.184888 -0.527431 -0.258017
-0.233408 -0.475867 0.034258
-0.214806 0.519288 0.060817
0.115575 0.971106 -0.155497
-0.104749 -0.658673 0.312046
-0.081927 -0.658673 0.385845
0.107051 0.971106 0.115930
-0.138698 -0.658673 -0.155392
-0.010459 0.813999 -0.267150
-0.211447 -0.513448 0.159537
-0.078337 -0.658673 -0.400659
-0.126038 0.646666 -0.266898
-0.130762 -0.658673 -0.212436
-0.149259 -0.658673 -0.054636
-0.144262 -0.658673 -0.120855
0.057314 0.899806 -0.246428
-0.076447 -0.642044 0.434113
-0.117619 0.665772 0.262623
-0.152240 -0.658673 0.005767
-0.150456 0.611814 -0.261964
-0.231476 -0.495098 0.069572
0.025065 0.866613 -0.256799
-0.172018 0.576059 0.251139
-0.054486 0.768187 0.263694
-0.154319 -0.658673 -0.087095
0.087988 0.971106 -0.013170
-0.202860 0.519519 -0.242565
-0.056838 0.765877 -0.269817
-0.225115 -0.513448 -0.110903
-0.198178 0.532053 0.241838
-0.130594 -0.658673 -0.256485
0.108731 0.971106 0.202325
-0.095259 0.713095 -0.266751
-0.179240 -0.547356 0.299071
-0.157111 -0.658673 0.083282
-0.079618 0.742594 0.261994
0.082466 0.971106 0.035056
-0.213315 -0.513448 0.225042
-0.092173 -0.635620 -0.437989
-0.121545 -0.658673 -0.312521
-0.221672 0.519288 -0.179201
-0.126437 -0.609040 -0.396649
-0.229734 0.519288 -0.125894
-0.173257 -0.565328 -0.321675
-0.110670 0.707952 0.256514
0.098380 0.971106 -0.212227
-0.073613 -0.658673 -0.464422
0.078750 0.971106 -0.105088
-0.170233 -0.658673 0.029954
-0.138719 -0.658673 0.273520
-0.209683 -0.528460 0.250908
0.068399 0.945849 0.226407
0.056306 0.932118 -0.240612
-0.154487 -0.593608 -0.365471
-0.163977 0.636232 -0.246113
-0.144682 -0.605303 0.378979
-0.247937 -0.513448 0.035665
-0.181634 -0.568015 0.323405
-0.009598 0.862456 0.250635
-0.248273 -0.513448 -0.075442
-0.199081 0.581371 0.229094
0.074971 0.971106 0.177761
-0.199669 -0.555103 -0.288250
-0.167462 -0.658673 0.184521
-0.219551 -0.534066 -0.241641
0.025674 0.907848 0.240452
-0.236809 0.519288 0.179860
-0.131938 -0.658673 -0.344665
-0.127235 -0.658673 0.362267
-0.249511 0.519288 0.078705
-0.183943 -0.658673 -0.046826
-0.160365 -0.658673 -0.240864
-0.255033 -0.513448 -0.003639
-0.137984 -0.658673 0.332538
-0.177582 -0.658673 0.138122
-0.038047 0.839214 0.251559
-0.255264 0.519288 -0.016992
0.051771 0.971106 0.077508
-0.144136 0.692982 0.243959
-0.249070 -0.513448 -0.158962
-0.254382 -0.513448 0.109841
-0.256650 0.519288 -0.048841
-0.019886 0.864849 -0.256653
-0.062171 0.814209 0.253428
-0.100529 0.763085 0.248956
0.068126 0.971106 -0.212373
-0.070716 0.802766 -0.259508
-0.257070 0.519288 -0.101665
-0.109284 -0.658673 0.443729
-0.192866 -0.658673 0.074842
0.045556 0.971106 -0.110735
-0.175923 0.657500 0.228233
-0.223855 0.573666 0.206692
-0.176469 -0.598185 0.357984
0.038418 0.971106 -0.061292
-0.216066 0.589937 -0.214326
-0.195847 -0.658673 -0.100910
-0.163725 0.681581 -0.236077
-0.188562 0.642992 -0.225705
-0.180563 -0.658673 0.222543
-0.267042 0.519288 0.050193
-0.134037 -0.658673 -0.399798
-0.235046 0.561992 -0.197845
0.037725 0.971106 0.111919
-0.251926 -0.524639 0.197706
-0.189444 -0.658673 -0.182896
-0.126878 0.743224 -0.247793
-0.263137 -0.513448 0.157143
-0.167357 -0.658673 -0.301666
0.013433 0.923846 -0.247772
-0.253941 -0.529363 -0.193142
-0.142561 -0.658673 0.391975
-0.129586 -0.647986 -0.445127
-0.165635 -0.658673 0.320654
-0.208948 -0.658673 0.010113
-0.064564 0.835162 -0.255771
-0.266958 0.519393 0.167515
-0.240042 -0.549938 0.255317
-0.204393 0.641690 0.210261
-0.226543 0.607048 0.192730
-0.270843 0.521094 -0.163224
-0.284594 -0.513448 0.012654
-0.142393 -0.651618 0.429704
-0.213861 0.631928 -0.204857
-0.281865 -0.514204 -0.106725
-0.278380 0.519288 0.123362
-0.232316 -0.568918 -0.284135
0.030230 0.971106 -0.199188
-0.219803 -0.658673 0.044441
-0.105400 0.801149 -0.245462
-0.211279 -0.658673 -0.155266
-0.165635 -0.658673 0.366760
-0.200634 -0.658673 -0.230492
-0.182389 -0.621259 0.380302
-0.034352 0.894872 0.240851
0.007219 0.971106 -0.006914
-0.264355 0.555085 -0.161670
-0.291775 -0.513448 -0.026229
-0.210355 -0.595687 -0.340928
-0.212665 -0.658673 0.178495
0.025653 0.971106 0.215111
-0.287534 0.519288 -0.123941
-0.198619 -0.609376 -0.367592
-0.150855 0.757101 0.223131
0.003272 0.971106 -0.117160
-0.196792 0.691974 0.203795
-0.116674 0.807847 0.232726
-0.228600 -0.658673 0.103374
-0.022573 0.923678 0.236610
-0.224905 0.650110 0.181372
-0.271556 0.566338 0.139297
-0.004539 0.971106 -0.078025
-0.205484 -0.658673 -0.266877
-0.008465 0.971106 0.027770
-0.279220 0.555169 -0.128203
-0.301097 0.519288 -0.033935
-0.260975 0.592268 0.152146
-0.298157 0.519288 0.096677
-0.270129 -0.552122 -0.216573
-0.268995 -0.552100 0.223677
-0.200487 0.700183 -0.202212
-0.298346 0.533775 -0.092092
-0.258434 0.610575 -0.152306
-0.307374 -0.519579 0.040829
-0.251548 0.627666 0.153679
-0.231602 0.663127 -0.172566
-0.289822 -0.541792 0.178076
-0.023875 0.971106 -0.026061
-0.215394 -0.658673 0.287188
-0.179849 0.747738 -0.208783
-0.249868 -0.658673 0.003437
-0.287975 -0.550274 -0.189972
-0.250183 -0.658673 0.033565
-0.233996 -0.605890 0.332790
-0.213693 -0.624828 0.370980
-0.238909 0.665100 0.158424
-0.024316 0.971106 0.101401
-0.311909 0.534636 -0.006368
-0.190074 -0.658673 0.396300
-0.150057 0.798042 -0.220310
-0.301727 0.563546 -0.043278
-0.253479 -0.593608 0.301696
-0.011677 0.971106 0.219352
-0.241092 -0.658673 0.204635
-0.251401 -0.658673 -0.134250
-0.295260 0.579104 -0.070781
-0.275671 0.616664 0.104676
-0.111698 0.854100 -0.232571
-0.207395 -0.658673 0.358152
-0.302503 -0.546873 -0.157387
-0.282474 0.605348 -0.096690
-0.013965 0.971106 -0.224152
-0.057300 0.919542 -0.241767
-0.196288 0.745260 0.188846
-0.264229 -0.586533 -0.286277
-0.231434 0.695690 0.158571
-0.275231 -0.577127 0.259579
-0.026815 0.971106 0.175619
-0.305548 0.569047 -0.006599
-0.025240 0.971106 -0.191546
-0.320097 -0.534171 -0.061501
-0.131812 0.840579 0.217337
-0.266098 0.647884 0.112486
-0.198094 -0.651303 -0.421381
-0.298346 0.595795 0.021241
-0.267042 -0.658673 0.089853
-0.250876 0.682001 -0.136854
-0.235109 0.711668 -0.153713
-0.252367 0.687355 0.126280
-0.261059 -0.658673 -0.183442
-0.292951 0.620674 -0.030303
-0.056460 0.971106 -0.003618
-0.221651 -0.639819 -0.397090
-0.181403 0.793738 0.190736
-0.219656 0.745008 -0.164042
-0.272879 -0.658673 0.128569
-0.150561 0.838710 -0.210757
-0.289297 -0.586491 -0.258794
-0.061709 0.971106 -0.066267
-0.092908 0.913516 0.220045
-0.202419 0.774800 -0.177731
-0.061751 0.971106 -0.103744
-0.309663 -0.572592 -0.205445
-0.043380 0.971106 -0.232613
-0.062045 0.971106 0.132117
-0.276490 0.675976 0.073666
-0.313841 -0.571542 0.198903
-0.251821 0.717777 0.112717
-0.258980 -0.658673 -0.280314
-0.269793 0.693780 -0.085646
-0.225745 0.761133 0.145491
-0.238636 -0.658673 -0.367340
-0.061961 0.971106 -0.180734
-0.288835 -0.658673 -0.095031
-0.061898 0.971106 0.188090
-0.250183 0.728338 -0.116719
-0.251338 -0.658673 0.328444
-0.091081 0.931551 -0.226083
-0.279975 0.687187 -0.036013
-0.280815 0.687271 0.024915
-0.280899 -0.658673 0.198441
-0.328349 -0.568141 0.163610
-0.341912 -0.554725 0.086116
-0.187386 0.820738 -0.183820
-0.282558 -0.615401 0.307511
-0.194294 0.817001 0.168964
-0.144136 0.881162 0.197958
-0.215772 0.793549 0.148325
-0.345754 -0.558798 -0.085373
-0.085328 0.971106 0.112402
-0.273446 -0.629090 -0.343027
-0.090136 0.971106 0.060817
-0.080184 0.960273 0.215342
-0.132337 0.899953 -0.210925
-0.301307 -0.658673 0.101317
-0.275042 -0.658673 0.280385
-0.305212 -0.658673 0.046939
-0.071828 0.971106 -0.218861
-0.281004 -0.658673 -0.255540
-0.253941 -0.653172 0.378811
-0.234668 0.779314 -0.130177
-0.267294 0.734322 0.061195
-0.091690 0.971106 -0.122262
-0.176406 0.855170 -0.187200
-0.344641 -0.570723 -0.129925
-0.353648 -0.561758 0.057185
-0.275105 -0.639210 0.344253
-0.255285 0.754288 -0.092176
-0.301978 -0.658673 -0.162888
-0.356923 -0.560772 -0.020477
-0.320769 -0.599151 -0.242838
-0.107856 0.971106 0.004193
-0.312539 -0.658673 -0.121254
-0.273719 0.742048 0.001463
-0.108297 0.950720 0.205726
-0.219803 0.816581 -0.142795
-0.320580 -0.658673 -0.046196
-0.313841 -0.658673 0.142384
-0.282894 -0.658673 -0.323166
-0.235172 0.804866 0.110198
-0.352220 -0.581200 0.143223
-0.308319 -0.621049 -0.301540
-0.336894 -0.596149 -0.216153
-0.245081 0.798420 -0.096039
-0.116044 0.971106 -0.102085
-0.330049 -0.658673 -0.003135
-0.158623 0.910955 0.179545
-0.175104 0.889834 -0.179474
-0.262675 0.782254 0.028442
-0.124254 0.971106 0.031214
-0.111887 0.971106 -0.169690
-0.317746 -0.658673 0.195649
-0.120747 0.971106 0.105726
-0.255201 0.797517 0.063546
-0.329230 -0.617564 0.259789
-0.135780 0.944841 0.188804
-0.202041 0.869657 0.142363
-0.373740 -0.577190 0.038100
-0.256314 0.800478 -0.057533
-0.122427 0.971106 0.171903
-0.363033 -0.594028 -0.157324
-0.301832 -0.658673 0.330207
-0.140084 0.971106 -0.032717
-0.332212 -0.658673 -0.187998
-0.208843 0.874801 -0.139919
-0.228327 0.852945 0.103164
-0.343402 -0.658673 -0.093603
-0.377771 -0.585630 0.082589
-0.260009 0.813180 -0.011806
-0.317074 -0.658673 0.295040
-0.378716 -0.588968 -0.103660
-0.253983 0.828023 0.029786
-0.348420 -0.658673 0.083492
-0.332254 -0.658673 0.225693
-0.137817 0.969804 -0.191000
-0.250687 0.840810 -0.043970
-0.333744 -0.658673 -0.266604
-0.162717 0.950594 -0.176220
-0.352535 -0.658673 0.173394
-0.225052 0.884879 -0.103660
-0.322155 -0.658673 -0.343342
-0.213294 0.903921 0.114439
-0.360618 -0.658673 0.134972
-0.180269 0.942721 0.147842
-0.166853 0.971106 -0.000951
-0.374958 -0.614792 -0.192449
-0.242331 0.870791 -0.065638
-0.197170 0.923657 -0.140759
-0.228957 0.889162 0.083912
-0.345607 -0.658673 0.255443
-0.247055 0.869048 0.024327
-0.398242 -0.599214 0.043895
-0.400068 -0.599466 -0.037567
-0.247622 0.875788 -0.018419
-0.373362 -0.658673 -0.090076
-0.376470 -0.658673 -0.037903
-0.386799 -0.617522 0.164618
-0.176112 0.971106 -0.083190
-0.377604 -0.658673 0.045637
-0.179303 0.971106 0.033481
-0.379199 -0.658673 0.011016
-0.238741 0.899428 0.044420
-0.380123 -0.658673 -0.127343
-0.179744 0.969952 -0.149850
-0.220328 0.930480 0.084458
-0.353585 -0.658673 -0.312857
-0.192677 0.971106 -0.035173
-0.361584 -0.658379 0.289161
-0.230721 0.923216 -0.071915
-0.210544 0.947088 -0.109371
-0.382159 -0.658673 -0.184387
-0.196456 0.971106 0.077403
-0.239917 0.923426 0.001505
-0.415500 -0.618865 -0.091504
-0.408949 -0.626088 0.135392
-0.418019 -0.621448 0.088909
-0.210040 0.971106 0.041270
-0.397990 -0.643094 0.211899
-0.229986 0.948095 0.042047
-0.416781 -0.625542 -0.125642
-0.391586 -0.654725 0.243203
-0.425893 -0.623232 -0.052977
-0.218795 0.971106 0.003668
-0.397318 -0.649917 -0.242922
-0.410524 -0.658673 0.110744
-0.222658 0.971106 -0.031352
-0.416172 -0.658673 -0.017348
-0.415731 -0.658673 -0.105823
-0.411280 -0.658673 0.160649
-0.434039 -0.629321 0.033775
-0.423394 -0.658673 -0.070320
-0.422659 -0.646936 -0.177080
-0.439896 -0.640785 -0.101225
-0.428538 -0.658673 -0.140843
-0.441450 -0.658673 0.133734
-0.453606 -0.658673 0.051411
-0.456693 -0.655943 0.095732
-0.463894 -0.652038 -0.022366
-0.455790 -0.658673 -0.125684
