0.378058 -0.569926 0.001631
0.407767 -0.604253 0.021766
0.398508 -0.596128 -0.036160
0.351079 -0.545109 -0.022366
0.326158 -0.516115 0.001484
0.420679 -0.619390 -0.038134
0.326578 0.519288 -0.007082
0.375224 -0.575678 0.063903
0.459562 -0.658673 -0.027405
0.334724 -0.531231 0.055127
0.425738 -0.628649 0.057668
0.399536 -0.603560 0.077214
0.434913 -0.640008 -0.082497
0.340939 -0.542842 -0.084491
0.399662 -0.607129 -0.108930
0.315177 0.519288 -0.066855
0.338041 -0.544122 0.102954
0.447637 -0.657098 0.092604
0.363383 -0.576518 -0.117622
0.370668 -0.584517 0.120213
0.302601 -0.513448 -0.047813
0.314632 0.525314 0.089182
0.447091 -0.658673 -0.119280
0.433129 -0.658673 0.020926
0.430021 -0.658673 0.051369
0.316920 0.540913 0.062266
0.437265 -0.658295 -0.150689
0.285595 -0.513448 -0.002358
0.300670 0.519288 -0.126881
0.302559 -0.523652 -0.128182
0.384756 -0.612147 -0.158500
0.286624 0.519288 0.015236
0.411651 -0.640134 0.153322
0.319817 -0.545697 -0.143614
0.410307 -0.658673 -0.025663
0.357672 -0.587373 0.157878
0.307955 -0.533814 0.150383
0.328320 -0.558021 0.158823
0.313141 0.561447 -0.061585
0.296177 0.527581 0.132537
0.273796 -0.513448 0.042866
0.406780 -0.658673 -0.109140
0.275055 0.519288 -0.058751
0.303777 0.551075 0.101779
0.371445 -0.610047 0.178369
0.332163 -0.569233 -0.174981
0.299053 -0.535220 -0.165113
0.266825 -0.513448 0.101023
0.262143 -0.513448 -0.072818
0.320384 -0.563459 0.188783
0.262731 0.519288 0.061363
0.399830 -0.658673 -0.152285
0.312994 0.588635 -0.021506
0.252066 -0.513448 -0.011428
0.310810 0.589328 0.034468
0.367666 -0.616136 -0.210778
0.407137 -0.658673 -0.203388
0.260758 -0.513448 0.136568
0.367750 -0.621553 0.213033
0.246229 -0.513448 0.019687
0.302790 0.581518 -0.090559
0.313057 -0.566629 -0.199986
0.375854 -0.658673 0.110555
0.086728 -0.046765 0.006859
0.365440 -0.658673 -0.036748
0.085552 0.048217 0.015824
0.087190 -0.076936 0.003437
0.087295 0.090712 0.002534
0.082865 0.007969 -0.026565
0.284566 0.556051 0.145575
0.242408 0.519288 -0.000951
0.257377 -0.513448 -0.168997
0.360464 -0.658673 0.033418
0.364474 -0.658673 -0.082224
0.087589 -0.118506 0.000372
0.248937 0.519288 0.113284
0.283747 0.558507 -0.148212
0.285742 -0.544269 0.205306
0.268190 0.529555 0.180889
0.386918 -0.658673 0.199386
0.239531 0.519288 -0.048589
0.309656 0.611541 0.009211
0.087211 0.136292 0.003248
0.079527 -0.059006 0.033376
0.079590 0.059975 -0.034502
0.264453 0.526951 -0.188019
0.079841 0.082083 0.032620
0.354984 -0.658673 0.072343
0.302811 0.603500 0.073540
0.077805 -0.064548 -0.038806
0.085111 -0.145632 0.019204
0.079736 -0.106686 0.032914
0.072808 -0.002717 0.045070
0.086833 -0.177608 -0.007439
0.087316 0.187227 -0.003723
0.080723 0.154579 0.030521
0.237012 -0.513448 0.156387
0.231028 0.519288 -0.104899
0.224331 0.519288 0.033439
0.221140 -0.513448 0.051222
0.256013 -0.524177 0.214166
0.352885 -0.658673 0.155065
0.310600 -0.587813 0.237219
0.069302 0.096653 -0.050878
0.384336 -0.658673 -0.255519
0.360779 -0.637173 -0.256883
0.231637 0.519288 0.143895
0.310328 -0.589409 -0.242250
0.331995 -0.612987 0.246604
0.300733 0.625482 -0.058877
0.079757 -0.192200 -0.034082
0.073375 0.155944 -0.045566
0.233527 0.519288 -0.167927
0.233884 -0.513448 0.187460
0.086812 -0.229676 -0.007586
0.328005 -0.658673 -0.039582
0.214190 -0.513448 -0.077374
0.345243 -0.658673 -0.158080
0.226241 -0.513448 -0.161166
0.275265 0.585192 0.152608
0.069470 -0.151217 -0.050668
0.323219 -0.658673 -0.005948
0.080786 0.215508 -0.031604
0.358701 -0.658673 -0.219575
0.212741 -0.513448 0.101107
0.351688 -0.658673 0.199827
0.063948 0.126110 0.056534
0.204931 -0.513448 0.000015
0.056348 0.038832 0.062371
0.053807 -0.026610 -0.065575
0.073984 -0.213300 0.043538
0.051057 -0.004376 0.066423
0.084523 0.257687 0.021367
0.076965 0.227601 0.039591
0.365188 -0.658673 0.264555
0.271780 -0.562199 -0.246764
0.054311 -0.099443 -0.065176
0.084985 -0.266628 0.020170
0.289227 0.628547 -0.099377
0.078246 0.246182 -0.037756
0.297457 0.645050 0.050550
0.054899 -0.124574 0.063483
0.236697 0.531675 -0.222682
0.276777 0.611961 0.134846
0.087001 0.289369 -0.006053
0.308921 -0.658673 -0.078571
0.193153 0.519288 -0.034481
0.232792 0.531486 0.226050
0.048097 0.109271 -0.069942
0.310181 -0.658673 -0.122262
0.315555 -0.615464 -0.279537
0.247195 0.565541 -0.198370
0.071926 -0.250126 0.046204
0.085384 -0.301333 -0.018398
0.304155 -0.658673 0.099217
0.073984 -0.261694 -0.044789
0.187400 0.519288 0.006271
0.203798 -0.513448 -0.181091
0.059140 0.204401 -0.061480
0.205666 0.519288 0.174737
0.295316 -0.658673 0.039045
0.200795 0.519288 -0.157303
0.085048 -0.309752 0.019729
0.212595 -0.513448 0.223845
0.038460 -0.065934 -0.074204
0.049587 0.170200 0.067556
0.183600 0.519288 0.078012
0.304617 -0.658673 0.158487
0.044024 0.153991 -0.071894
0.308291 -0.618907 0.285907
0.201404 0.519288 -0.191231
0.086854 0.332913 0.005956
0.350953 -0.658673 -0.299882
0.324688 -0.658673 0.235750
0.084061 0.327454 -0.023731
0.068798 0.278787 0.050277
0.053345 -0.219116 -0.065911
0.186497 -0.513448 0.152650
0.186224 0.519288 -0.130366
0.065670 0.274336 -0.055623
0.177637 0.519288 -0.077920
0.267098 -0.580633 0.279084
0.028298 0.044060 -0.078403
0.212658 0.525545 -0.244412
0.067832 -0.295517 -0.052788
0.302601 -0.658673 0.198231
0.172641 -0.513448 -0.107775
0.309908 -0.658673 -0.223480
0.166783 -0.513448 -0.054342
0.022650 0.019706 0.077991
0.271339 0.644273 -0.134565
0.230608 -0.549497 -0.265345
0.021034 0.011371 -0.079473
0.290193 0.676249 -0.062215
0.249651 0.607405 -0.182014
0.185973 -0.513448 0.202745
0.039615 -0.202172 0.072469
0.026807 -0.127639 -0.078718
0.048412 0.245384 0.068459
0.271549 -0.658673 -0.079599
0.291369 0.683681 0.037638
0.271003 -0.658673 0.076563
0.051372 -0.260035 0.066192
0.286498 -0.658673 -0.170761
0.072073 -0.330768 0.046036
0.292985 0.687334 -0.024172
0.087274 -0.374712 0.002786
0.081689 0.361865 -0.029463
0.070729 -0.333099 -0.049009
0.163718 0.519288 0.101716
0.082235 -0.369799 -0.028098
0.078897 0.361698 0.034930
0.199451 -0.524303 -0.255519
0.012762 -0.040719 0.079293
0.246943 0.620653 0.178180
0.274111 -0.604064 -0.305152
0.211629 -0.538013 0.273037
0.154249 0.519288 -0.028056
0.192460 -0.515779 0.262455
0.041924 0.258821 -0.072776
0.016037 -0.138410 0.078873
0.294476 -0.658673 0.250383
0.145746 -0.513448 0.047317
0.083726 0.395290 -0.024508
0.085279 0.401652 0.017945
0.222189 0.586977 -0.222514
0.076881 -0.381787 0.039759
0.245473 -0.583572 -0.299735
0.062919 0.346287 0.057311
0.016583 -0.171162 0.078789
0.086581 -0.411453 -0.009265
0.004321 -0.082499 0.079692
0.274929 0.685382 0.100561
0.228320 0.606418 0.207217
0.251898 -0.658673 0.113074
0.048600 -0.311264 -0.069564
0.152086 0.519288 0.140515
0.180241 0.519288 -0.259697
0.255152 0.657290 0.155254
0.048475 -0.317709 0.068417
0.036780 0.279963 0.073624
0.138922 0.519288 0.024348
0.314296 -0.658673 0.328213
0.020887 0.216872 0.078222
0.162122 0.519288 0.202241
0.299200 -0.658673 0.296804
0.004007 0.122603 0.079650
0.013979 -0.188022 -0.080397
0.255635 -0.658673 0.161636
0.132708 -0.513448 -0.016782
0.086224 0.425922 -0.011995
0.143352 -0.513448 -0.143887
0.308921 -0.658673 -0.329758
0.059308 0.362789 -0.061334
0.044212 0.319728 0.070559
-0.002355 0.110657 -0.080082
