-0.142930 0.123870 0.008510
-0.070950 0.203470 0.070460
-0.144830 0.121720 -0.016120
-0.114910 0.155610 -0.082760
-0.061720 0.210310 -0.006060
-0.139840 0.127370 0.053100
0.014820 0.311320 0.018890
-0.141330 0.125680 -0.059060
-0.124810 0.144390 -0.085200
-0.121960 0.147630 0.094110
-0.112350 0.158520 0.104510
-0.071320 0.196010 0.017500
-0.116820 0.153450 -0.116210
-0.150210 0.115620 -0.081060
0.011750 0.301370 -0.031160
-0.069580 0.199470 -0.079230
-0.054910 0.213330 -0.028670
-0.131610 0.136690 -0.118210
-0.143740 0.122950 0.106750
-0.067500 0.196010 -0.039640
-0.040120 0.227990 -0.022710
-0.145680 0.120760 -0.123410
-0.144690 0.121870 0.127040
-0.037510 0.230770 0.030430
-0.027930 0.243210 0.041560
-0.065250 0.196010 0.005900
-0.154590 0.110660 0.121930
-0.088920 0.173460 -0.099090
-0.059400 0.203470 0.063210
-0.125350 0.138750 0.129670
-0.146930 0.119340 0.143020
-0.065310 0.196010 -0.065770
-0.014780 0.257200 0.046420
0.008950 0.289140 0.038110
-0.099210 0.161360 -0.109750
0.018990 0.301510 0.027260
-0.144910 0.122720 -0.167590
-0.060720 0.196010 -0.016260
-0.090190 0.168770 0.103220
-0.147210 0.116750 -0.149050
-0.072510 0.186300 0.087780
-0.053860 0.203470 -0.041570
0.026750 0.309040 0.001750
-0.034110 0.226260 -0.039440
0.001040 0.271380 -0.040450
0.026900 0.304600 0.015680
-0.042210 0.210660 -0.045710
-0.145520 0.098930 -0.026060
-0.149350 0.098930 -0.086240
-0.147500 0.098930 -0.066630
-0.113460 0.137640 -0.130640
-0.141800 0.098930 0.005930
-0.067370 0.180720 -0.092700
-0.043160 0.203470 0.006680
-0.000810 0.258650 -0.047580
-0.016730 0.236920 -0.042200
-0.146380 0.098930 -0.101810
-0.148530 0.098930 -0.123090
-0.042330 0.203470 0.025880
-0.144760 0.098930 0.103480
0.003530 0.260970 0.043220
-0.141630 0.102670 0.117430
-0.047070 0.196010 0.054710
-0.148650 0.098930 -0.144100
-0.046840 0.196010 -0.057240
-0.133510 0.102670 -0.048470
-0.140510 0.098930 0.089070
-0.157850 0.090150 -0.153050
-0.134910 0.098930 -0.018180
0.016630 0.274570 0.036960
-0.074900 0.166710 -0.105040
-0.113640 0.130040 0.137340
-0.055180 0.186830 0.087310
0.024710 0.284970 -0.031360
-0.132290 0.102670 -0.070810
-0.121320 0.122000 -0.144420
-0.135540 0.098930 0.073440
-0.143510 0.098930 0.138850
-0.007540 0.239810 0.047120
-0.132210 0.098930 -0.034780
-0.040950 0.196010 -0.010600
-0.144750 0.098930 0.156930
-0.131240 0.102670 -0.090710
0.036180 0.296660 0.000890
-0.084380 0.153580 0.116600
-0.075820 0.161400 0.109710
-0.136420 0.098930 -0.115610
-0.128980 0.098930 0.027800
-0.061330 0.174920 0.097810
-0.123460 0.119610 -0.168380
-0.003450 0.239740 -0.047580
-0.137440 0.098930 -0.134670
-0.083130 0.151260 -0.118650
-0.123440 0.102670 0.052500
-0.036230 0.196010 -0.048860
-0.125680 0.102670 0.091650
-0.037500 0.196010 -0.078510
-0.148610 0.079690 0.102340
-0.154900 0.080440 0.152930
0.017870 0.260970 0.038220
-0.130650 0.098930 0.126780
0.018680 0.260970 -0.036580
-0.128520 0.102670 0.146960
-0.134430 0.099440 -0.162210
0.036900 0.284210 -0.015670
-0.113880 0.116400 0.149360
0.013180 0.251740 0.049720
-0.023860 0.203470 -0.043100
0.038880 0.285850 0.008830
-0.096170 0.131620 -0.135950
-0.057380 0.167500 -0.104340
-0.118170 0.098930 -0.056390
-0.112520 0.102670 -0.002450
-0.027280 0.196010 -0.020670
-0.113050 0.102670 -0.033740
-0.029040 0.196010 0.077510
-0.114580 0.098930 0.013640
-0.117900 0.098930 -0.080800
-0.018370 0.203470 0.011000
-0.016120 0.208340 0.060280
-0.115910 0.098930 0.078210
-0.108800 0.102670 -0.018230
-0.071890 0.148920 0.120710
-0.121730 0.098930 -0.131170
-0.124280 0.098930 -0.147660
-0.115220 0.102670 -0.112460
-0.006170 0.215980 -0.060720
0.014040 0.241260 -0.047030
-0.108970 0.112860 -0.166310
-0.108860 0.102670 0.097430
-0.038210 0.177590 0.095460
-0.140420 0.079110 0.154310
-0.107390 0.098930 0.068460
-0.075130 0.139030 0.129420
-0.106950 0.098930 -0.069570
-0.057310 0.155570 -0.114850
-0.017840 0.196010 0.064170
-0.093310 0.121230 0.145100
-0.111440 0.098930 0.118100
-0.009920 0.203470 -0.042770
-0.008800 0.203470 -0.002230
-0.014550 0.196010 -0.031930
-0.098080 0.102670 -0.004180
-0.110310 0.102670 -0.149000
-0.111140 0.098930 0.133250
-0.142620 0.059930 -0.032430
-0.100390 0.102670 0.078890
-0.102060 0.098930 0.052220
0.026790 0.247640 -0.043950
0.016420 0.233110 0.045810
0.030170 0.251290 0.041250
-0.130270 0.080050 -0.148530
-0.098230 0.098930 0.036300
-0.115870 0.094010 -0.158830
-0.142950 0.066750 0.150570
0.040180 0.260970 -0.011590
-0.096350 0.098940 0.015680
-0.143070 0.061430 -0.116270
-0.101520 0.098930 -0.100100
-0.004690 0.203470 0.067300
-0.148780 0.060220 -0.148190
-0.142580 0.059790 0.106990
-0.095950 0.098940 -0.039200
-0.001960 0.203470 -0.014820
-0.093610 0.102670 -0.069430
-0.141270 0.055470 0.063720
-0.008560 0.196010 -0.070980
-0.006350 0.196010 0.032850
-0.102330 0.098930 -0.130990
-0.141590 0.056540 -0.099110
0.036670 0.250570 -0.036240
-0.005420 0.196010 0.054650
-0.104000 0.100110 -0.162410
-0.045360 0.154520 0.115780
-0.140080 0.051540 0.033510
-0.019290 0.181180 0.092290
-0.092640 0.098940 -0.086610
-0.087850 0.098940 -0.019620
-0.069170 0.128600 -0.138610
0.018490 0.222100 -0.054550
-0.088670 0.098940 -0.055720
-0.090870 0.098940 0.088940
0.042810 0.252770 0.027510
-0.093310 0.098940 0.116480
-0.079550 0.121340 -0.168890
-0.114520 0.082770 -0.149880
0.006710 0.205300 0.060930
-0.025300 0.170190 0.101980
0.006550 0.203470 0.047430
-0.091410 0.102670 -0.141390
0.002350 0.196010 0.005190
0.007830 0.203470 0.031120
-0.138560 0.046560 -0.010180
-0.084230 0.098940 0.042620
-0.083310 0.098940 0.059630
-0.118810 0.073350 0.146500
0.047460 0.250970 -0.018990
0.012520 0.203470 -0.008680
0.031150 0.228230 0.032930
-0.144660 0.046630 -0.140810
-0.085440 0.098940 -0.111310
-0.089620 0.098930 0.142690
-0.137100 0.041720 0.008150
-0.013510 0.175060 -0.097680
-0.135570 0.054110 0.146740
-0.143690 0.043430 -0.125900
-0.072820 0.102670 -0.024040
0.012910 0.203470 -0.078500
-0.137040 0.041530 -0.057510
0.008960 0.196010 -0.048920
-0.079300 0.098940 -0.087210
-0.075280 0.098940 0.032270
-0.075590 0.102670 0.094380
-0.143690 0.043440 0.143270
-0.125090 0.060320 -0.143900
-0.073650 0.098940 -0.000270
-0.072930 0.102670 0.075930
-0.070760 0.102670 -0.054500
0.012640 0.196010 -0.024900
-0.083130 0.102420 -0.162280
-0.018500 0.163490 -0.107870
-0.071620 0.098940 -0.038270
0.046910 0.238710 0.000170
-0.001950 0.180050 0.093290
-0.067900 0.102670 0.056430
0.019400 0.203470 0.062570
0.015230 0.196010 0.022550
-0.093370 0.088000 -0.157010
-0.073190 0.102670 -0.123970
0.038600 0.225080 -0.038420
-0.135030 0.034900 -0.038400
-0.024950 0.153140 -0.117000
-0.135450 0.036270 0.088100
-0.062040 0.102670 0.022870
0.044100 0.228200 -0.008640
-0.065910 0.098940 -0.066200
-0.133920 0.031220 0.024100
-0.104040 0.069720 0.145400
-0.070080 0.098940 0.112600
0.026260 0.203470 -0.042470
0.020720 0.196010 0.036030
-0.064590 0.102670 -0.100700
0.045560 0.227420 0.017830
-0.073110 0.098930 0.141380
-0.066830 0.102670 -0.139450
-0.057970 0.115940 -0.167250
-0.111440 0.058030 0.141850
0.013650 0.186470 -0.087630
-0.062450 0.098940 -0.078990
-0.058210 0.112830 -0.152500
-0.133290 0.029160 0.074290
-0.058250 0.098940 -0.022270
-0.001100 0.168640 0.103330
0.023710 0.196010 -0.076210
-0.139570 0.029850 -0.138040
0.031730 0.203730 0.052270
-0.128660 0.039850 -0.142410
-0.066010 0.102670 -0.157770
-0.032440 0.134650 0.133280
0.034730 0.203470 0.002140
-0.055460 0.098940 0.033500
-0.055020 0.102670 0.085470
-0.077330 0.089190 -0.157370
-0.051930 0.102670 0.049150
-0.063030 0.098940 0.129130
-0.054150 0.098940 0.010120
0.051360 0.224210 -0.020390
-0.054810 0.098940 -0.051030
-0.054130 0.102670 -0.091090
-0.131520 0.023300 0.002980
0.042280 0.212210 -0.045540
0.036600 0.203470 0.022680
0.002520 0.167200 -0.104610
0.028860 0.196010 0.073720
0.047700 0.217900 0.036810
-0.132250 0.025730 -0.095480
-0.027130 0.134690 -0.133250
-0.089440 0.070470 -0.145620
-0.052960 0.102670 -0.112750
-0.116830 0.042810 0.137240
-0.048080 0.102670 0.065860
-0.046310 0.102670 -0.036930
-0.020100 0.138880 0.129560
-0.130630 0.020360 0.056940
-0.109930 0.047200 -0.138570
-0.136650 0.020210 0.121020
-0.050950 0.102670 -0.126160
-0.051550 0.098940 0.102430
-0.044530 0.098940 -0.009430
-0.131330 0.020830 -0.112860
-0.129760 0.017500 -0.060590
-0.129230 0.015740 0.032210
0.040230 0.196010 0.011520
0.046170 0.203470 -0.012020
-0.042460 0.098940 0.028630
-0.129430 0.016430 0.083550
-0.006390 0.145630 0.123610
-0.126290 0.025260 -0.137990
-0.050820 0.098930 -0.140470
-0.086740 0.062820 0.143300
-0.030120 0.121570 -0.144810
0.042300 0.196010 -0.025890
0.046180 0.203470 -0.069830
-0.046940 0.098940 0.122720
-0.041570 0.098940 -0.075690
-0.127600 0.010370 0.006450
-0.036590 0.113520 -0.166510
-0.033100 0.102670 -0.058790
0.022950 0.170980 0.101280
-0.037990 0.098940 0.088930
-0.034280 0.098940 0.046820
-0.128150 0.012210 0.109980
0.061990 0.212470 0.002750
-0.127080 0.008650 -0.076440
0.043490 0.190740 -0.083870
-0.037920 0.098940 -0.118860
-0.036050 0.098940 0.105570
-0.025700 0.102670 -0.032430
-0.028640 0.098940 0.013810
-0.106900 0.030230 -0.133430
-0.025540 0.102670 0.036450
-0.125980 0.005030 -0.048310
-0.033370 0.098940 -0.102240
-0.127900 0.010480 0.133510
-0.097040 0.038900 0.136050
0.030680 0.172100 -0.100290
-0.089770 0.045260 -0.137980
0.058090 0.203470 0.075990
0.044270 0.186470 0.087630
-0.126160 0.005620 -0.089060
-0.132000 0.004890 -0.129620
0.017170 0.155590 -0.114830
-0.126300 0.006080 0.098620
-0.030210 0.102670 0.127320
-0.007570 0.128900 0.138340
0.056240 0.196010 -0.029760
-0.046210 0.088960 -0.157300
0.057370 0.196010 -0.010020
-0.023380 0.098940 -0.017160
0.063480 0.203470 0.037530
0.055820 0.196010 -0.078660
-0.033470 0.098930 -0.146380
0.057390 0.196010 0.058180
-0.112370 0.018180 0.131810
-0.062390 0.067660 -0.144770
-0.020900 0.098940 -0.004590
-0.033610 0.099250 -0.160420
-0.022150 0.098940 0.069780
-0.022430 0.098940 -0.077030
-0.022290 0.098940 0.085640
-0.027030 0.098940 -0.128830
-0.123250 -0.003960 0.041030
0.066910 0.203470 -0.077670
0.064380 0.196010 0.011800
-0.021160 0.098940 0.111990
-0.014950 0.098940 0.027840
0.071860 0.203470 -0.000170
0.043720 0.172640 0.099820
0.066790 0.196010 0.025180
-0.014630 0.098940 -0.050300
-0.007070 0.120880 -0.168760
-0.012990 0.098940 0.041110
-0.012540 0.098940 0.056710
-0.121580 -0.009490 0.014230
-0.015510 0.098940 -0.099480
-0.090180 0.026380 0.132260
-0.124030 -0.004690 0.128910
-0.009330 0.098940 0.008610
0.069910 0.196010 -0.052650
-0.006230 0.102670 -0.033730
0.071210 0.196010 -0.019020
-0.009460 0.102670 0.090580
-0.004610 0.102670 -0.014520
0.010040 0.129840 -0.137520
-0.112670 0.004100 -0.131580
-0.126700 -0.011930 -0.103380
-0.127300 -0.010630 -0.121320
-0.046310 0.068610 -0.145060
0.077030 0.203470 0.068270
-0.008130 0.098940 -0.067260
0.073320 0.196010 0.057830
-0.011480 0.102670 0.141170
-0.014240 0.098930 -0.136810
0.079210 0.203160 -0.061710
-0.120740 -0.012240 0.078010
-0.126200 -0.014270 0.109390
0.021650 0.137000 -0.131210
0.079210 0.199510 0.035580
-0.009350 0.098940 -0.116640
0.032840 0.147770 -0.121720
-0.099710 0.008840 0.126940
-0.119280 -0.017070 -0.027390
0.039620 0.153350 0.116810
0.064890 0.180750 -0.092680
0.001150 0.098940 0.028110
-0.032710 0.073330 -0.146490
0.078780 0.196010 0.078710
-0.000930 0.098940 -0.084570
0.002790 0.098940 -0.024500
0.002330 0.098940 0.051040
-0.095900 0.007060 -0.126400
0.002180 0.098940 -0.056650
-0.078060 0.023130 -0.131280
-0.005200 0.101730 -0.161170
-0.000280 0.102670 -0.139270
0.064930 0.174880 0.097850
0.074930 0.184980 0.088950
-0.047520 0.050420 0.139550
0.083050 0.191640 0.048470
0.004150 0.098940 -0.098160
0.013050 0.102670 -0.008260
0.009750 0.098940 0.011770
0.004740 0.098940 0.109730
0.013540 0.102670 -0.032620
0.062480 0.166830 -0.104930
0.084860 0.189570 0.018340
0.027920 0.129070 0.138190
-0.016720 0.081380 -0.155000
0.085500 0.188850 -0.003870
0.004070 0.098930 0.130060
0.012040 0.098940 0.036200
-0.046560 0.045450 -0.138040
-0.063150 0.027880 0.132720
-0.115790 -0.028570 -0.047150
-0.116240 -0.027100 -0.078170
0.025610 0.122450 -0.144030
-0.115300 -0.030210 0.007790
0.012650 0.098940 0.085010
0.009140 0.098940 -0.120680
0.087780 0.186260 -0.021050
-0.062990 0.024560 -0.131710
0.014380 0.098940 -0.077120
-0.076020 0.011310 0.127690
0.011210 0.105320 -0.159120
0.041810 0.136430 -0.131710
-0.034680 0.052400 -0.140150
-0.114610 -0.032460 -0.032680
-0.114580 -0.032590 0.052800
0.019650 0.098940 -0.055840
0.019430 0.098940 0.060640
0.016830 0.098940 -0.101150
0.012950 0.098930 -0.140670
0.026410 0.102670 0.050300
0.014860 0.098930 0.142940
0.025380 0.098940 0.019480
0.073280 0.162730 0.108540
-0.113220 -0.037050 -0.061930
0.028250 0.116540 -0.167440
0.022350 0.102670 0.124890
-0.118560 -0.039470 0.096310
-0.112570 -0.039200 -0.004120
0.022580 0.098940 0.104380
0.064920 0.151020 -0.118860
-0.112480 -0.039510 0.033840
0.073700 0.160210 -0.110770
0.093960 0.179220 0.005460
0.028930 0.098940 0.000980
0.026060 0.098940 0.078890
-0.112600 -0.039100 0.072670
0.029390 0.102670 0.093850
-0.012770 0.062700 -0.143270
0.027880 0.098940 -0.079680
-0.099760 -0.024480 0.122690
0.094530 0.178570 -0.055140
0.058320 0.139490 0.129020
-0.104610 -0.030390 -0.121120
0.032470 0.098940 -0.021520
-0.085920 -0.014170 -0.119970
0.094520 0.178590 -0.082570
-0.111160 -0.043850 0.008660
-0.111880 -0.041490 -0.089720
0.026700 0.098940 -0.128960
0.033480 0.098940 -0.067170
0.030660 0.098940 -0.113960
0.034180 0.102670 0.112070
0.032450 0.098940 -0.097860
-0.115360 -0.045290 0.116610
0.026950 0.098930 -0.153620
0.037280 0.098940 -0.053530
0.013130 0.082420 -0.151050
0.095430 0.173800 0.098800
0.094830 0.173060 -0.099450
0.064910 0.138240 -0.130120
0.040850 0.098940 -0.006290
0.033240 0.098930 0.133570
0.058540 0.129450 -0.137860
-0.026640 0.034040 -0.134580
0.100840 0.171400 -0.027600
0.043130 0.098940 0.011330
0.100720 0.171540 0.055490
0.042210 0.098940 0.072310
-0.058450 -0.000780 -0.124030
-0.112770 -0.053160 0.090760
-0.114030 -0.054430 -0.091790
-0.108340 -0.053160 0.042100
0.082250 0.150410 0.119400
0.039480 0.098940 -0.126430
-0.108150 -0.053790 -0.054850
0.044450 0.098940 0.089630
0.104060 0.167740 0.007970
-0.107700 -0.055270 0.066420
0.049430 0.098940 -0.033480
-0.113350 -0.056670 -0.109900
-0.082020 -0.029210 -0.115410
0.049940 0.102670 -0.100170
-0.106800 -0.058250 -0.034710
0.005530 0.057210 -0.141610
-0.006590 0.043410 0.137420
-0.092550 -0.041920 -0.111560
0.042070 0.099470 -0.160480
0.107050 0.164330 -0.015570
-0.049850 -0.003390 0.123240
-0.106000 -0.060890 0.029470
-0.038130 0.007760 0.126620
0.055220 0.114060 -0.166680
0.054850 0.098940 0.053570
0.053970 0.102670 0.114100
0.053760 0.098940 -0.086000
0.056530 0.098940 -0.059490
0.107830 0.163450 -0.069240
0.057790 0.098940 0.036400
0.049580 0.098930 -0.139750
0.108640 0.162530 -0.055260
0.062130 0.102670 -0.014180
0.062290 0.102670 0.015790
-0.105530 -0.062450 -0.075290
-0.105640 -0.062080 0.084140
0.086390 0.140300 -0.128300
-0.064920 -0.023960 0.117000
0.056670 0.098940 0.094840
0.107810 0.163470 -0.102650
0.035130 0.081630 -0.153640
0.067390 0.121300 -0.167160
-0.021170 0.016840 -0.129370
-0.095700 -0.053930 0.113990
0.072730 0.122020 0.144410
0.024870 0.065630 -0.144160
0.002720 0.039390 -0.136200
0.058920 0.098940 -0.121830
0.069470 0.102670 -0.027070
0.069290 0.102670 0.044920
0.066080 0.102670 -0.097460
-0.065990 -0.032720 -0.114350
-0.102800 -0.071430 -0.009700
0.111270 0.159540 0.108660
0.060210 0.098930 0.132050
0.072930 0.102670 -0.004760
0.114960 0.155340 0.049410
-0.102480 -0.072500 0.063350
-0.107940 -0.074500 0.100390
0.115650 0.154550 0.036390
-0.105190 -0.073880 -0.084370
-0.029270 -0.001970 -0.123670
0.060670 0.098930 -0.159780
-0.008180 0.018680 -0.129930
0.073790 0.098940 0.026990
0.075120 0.098940 0.011010
-0.099030 -0.069790 -0.109180
-0.103950 -0.076760 0.083470
0.117980 0.151900 -0.039310
0.118370 0.151460 0.016500
-0.100770 -0.078130 0.013930
0.075150 0.098940 0.062270
0.078980 0.102670 -0.062240
-0.100700 -0.078380 -0.047070
0.075330 0.098940 -0.079560
-0.100420 -0.079310 -0.021830
0.081280 0.102670 -0.017500
-0.041820 -0.021230 -0.117830
0.073280 0.102670 -0.138740
0.074280 0.098940 0.104230
0.075990 0.098940 0.084800
0.110820 0.146640 -0.122720
0.120450 0.149100 -0.006210
-0.010330 0.007990 0.126690
0.083980 0.102670 -0.036140
0.084770 0.117920 -0.166120
-0.090380 -0.069250 0.109350
0.094210 0.125060 -0.141730
0.075180 0.098940 0.123660
-0.086440 -0.066710 -0.104050
0.119680 0.149970 -0.094740
0.019610 0.036150 0.135220
0.121430 0.147980 -0.065410
0.087810 0.102670 0.021460
-0.057260 -0.043800 0.110990
-0.046090 -0.034140 0.113920
0.079660 0.104850 -0.159530
0.081300 0.098940 -0.110720
-0.006510 0.004030 -0.125490
-0.074190 -0.062180 0.105420
-0.032120 -0.022770 0.117360
0.038760 0.051320 -0.139820
0.123450 0.145690 0.081870
-0.097580 -0.088650 -0.003400
-0.097780 -0.088010 0.055080
0.088370 0.098940 -0.079930
-0.013340 -0.007420 -0.122020
0.090420 0.102670 -0.095820
0.084470 0.098940 -0.126090
0.123560 0.145550 -0.111750
-0.097000 -0.090560 0.024170
0.089160 0.098940 0.086670
0.029940 0.037290 -0.135570
0.091580 0.102670 0.099610
0.039430 0.047300 0.138600
0.091800 0.098940 0.073960
0.091490 0.102670 0.115790
0.093940 0.098940 -0.063960
-0.096140 -0.093420 -0.042410
0.096230 0.098940 -0.036710
0.096910 0.098940 -0.006450
0.079520 0.091590 -0.158100
0.128210 0.140270 0.062910
-0.020740 -0.021390 -0.117780
0.096450 0.098940 0.050500
-0.095820 -0.094490 0.038420
0.121340 0.138190 -0.130170
-0.101590 -0.095450 -0.100800
0.006890 0.003860 0.125440
0.130260 0.137940 -0.035580
-0.100860 -0.097870 0.091830
-0.094840 -0.097700 0.010380
-0.036660 -0.041890 -0.111570
0.097000 0.102670 -0.138220
0.064410 0.064610 0.143850
0.102210 0.098940 -0.050780
0.103120 0.098940 0.028390
-0.047900 -0.054480 -0.107750
-0.094550 -0.098670 0.066810
-0.047900 -0.057170 0.106940
0.101590 0.098940 -0.102940
0.104820 0.110240 -0.154790
0.132320 0.135590 -0.089970
0.108560 0.102670 -0.069840
0.107470 0.098940 -0.024890
0.002600 -0.009630 -0.121350
0.027880 0.015570 0.128980
-0.008630 -0.023750 0.117070
0.107020 0.098940 0.087760
0.113570 0.102670 -0.005980
0.111150 0.102670 -0.087330
0.136680 0.130630 -0.020870
-0.030810 -0.047730 0.109800
0.123640 0.124100 -0.142570
0.137070 0.130190 0.031790
0.061010 0.045100 -0.137930
0.015430 -0.005360 0.122640
0.109210 0.098940 -0.125640
-0.096670 -0.111700 -0.095330
-0.005590 -0.030640 -0.114980
-0.090470 -0.112120 0.045090
-0.025580 -0.051960 -0.108520
0.137920 0.129230 -0.128050
0.041600 0.015570 -0.128980
0.121030 0.098940 -0.045590
-0.090050 -0.113520 -0.053700
0.117070 0.107910 -0.164790
0.120290 0.102670 -0.106810
0.047740 0.021840 0.130890
-0.080910 -0.103480 0.098970
0.099650 0.082910 -0.149420
-0.036420 -0.064730 0.104650
0.119330 0.098940 0.091900
0.142140 0.124420 -0.058050
0.123850 0.098940 0.028070
0.123600 0.098940 0.043100
0.124420 0.098940 0.004890
0.124990 0.098940 -0.018860
0.120000 0.102670 -0.145870
-0.082880 -0.109220 -0.097230
-0.088580 -0.118350 0.004570
0.126580 0.102670 -0.087140
-0.094010 -0.120460 -0.075900
-0.093800 -0.121150 0.072820
0.068010 0.037310 0.135580
0.043920 0.009590 0.127170
-0.066460 -0.098500 0.094410
0.129780 0.114880 -0.165190
-0.009500 -0.047080 -0.110000
-0.089180 -0.119570 0.094090
0.124990 0.098940 -0.121400
0.146990 0.118910 -0.020360
0.130550 0.098940 0.055610
0.085820 0.054050 -0.140650
-0.041140 -0.078950 0.100340
0.145830 0.120220 -0.086510
0.139830 0.119970 -0.146210
0.147490 0.118330 -0.036260
0.113000 0.087220 -0.156770
0.010740 -0.030380 0.115060
0.148750 0.116900 -0.005520
0.135560 0.098940 -0.002970
0.071670 0.032960 -0.134260
-0.073020 -0.111910 0.093360
-0.086470 -0.125320 0.059470
0.136450 0.098940 -0.058890
0.002070 -0.044620 0.110740
0.103170 0.066350 -0.144380
0.148520 0.117170 -0.107840
0.139830 0.102670 0.077320
0.141420 0.098940 0.042730
0.148880 0.116760 -0.131760
0.142660 0.098940 -0.020730
0.066880 0.018440 0.129850
0.140860 0.098940 -0.075050
0.144440 0.098940 0.007990
0.144230 0.098940 -0.043200
-0.024120 -0.077320 0.100830
0.145330 0.098940 0.021040
0.132980 0.096510 -0.159590
0.013730 -0.042040 -0.111520
-0.012750 -0.068110 -0.103620
0.145330 0.098940 0.058950
0.072260 0.019840 -0.130280
0.143050 0.098940 -0.095990
-0.056360 -0.109640 -0.091040
0.158190 0.128380 -0.171060
0.028530 -0.029410 0.115350
0.143540 0.102670 -0.136050
-0.088720 -0.137910 0.082160
0.151890 0.117210 -0.165910
-0.082960 -0.136890 -0.022490
0.144920 0.098940 -0.111150
0.126760 0.081510 -0.154030
0.004510 -0.059140 0.106340
0.145980 0.102560 -0.163150
-0.037020 -0.101140 0.093610
-0.086710 -0.144540 -0.075350
0.048860 -0.019110 -0.118470
0.044740 -0.024400 0.116870
0.002180 -0.067640 -0.103760
-0.025630 -0.095300 -0.095380
0.127340 0.068300 -0.148840
-0.012920 -0.085400 0.098380
-0.080110 -0.146290 -0.054210
-0.066280 -0.133710 -0.085110
-0.079600 -0.147990 0.027210
0.039420 -0.035810 -0.113410
0.149800 0.082740 -0.102900
-0.004480 -0.084220 -0.098740
-0.058860 -0.133320 0.083860
0.095620 0.019110 -0.130060
0.080070 0.001110 0.124600
0.151410 0.086180 -0.156460
-0.077610 -0.154570 0.041870
-0.077290 -0.155620 -0.012730
0.114780 0.035570 -0.135050
0.148000 0.072220 -0.128560
-0.081810 -0.160700 0.072880
0.068400 -0.020550 0.118040
0.007730 -0.085040 0.098490
-0.067840 -0.152910 0.083990
-0.021380 -0.114120 0.089680
0.020140 -0.075830 -0.101280
0.041740 -0.054590 0.107720
-0.027960 -0.124480 -0.086540
0.112240 0.018670 -0.133090
0.146930 0.055380 -0.103520
-0.032510 -0.129410 0.085040
0.147750 0.058090 -0.126430
0.145560 0.050850 -0.086320
0.143370 0.043620 0.047340
0.022060 -0.081580 0.099540
0.142680 0.041360 -0.033040
-0.078370 -0.172050 0.077900
-0.072900 -0.170080 0.037760
0.141350 0.036960 -0.007850
0.142370 0.040320 -0.071060
0.140780 0.035090 0.036620
0.104160 -0.000180 -0.124210
-0.074020 -0.171420 -0.078380
-0.001430 -0.109420 0.091100
0.143050 0.042560 -0.115650
-0.076870 -0.177000 -0.066490
0.096870 -0.012290 -0.120540
-0.054720 -0.159370 0.075960
-0.057950 -0.161810 -0.078880
-0.042900 -0.149540 0.078940
-0.076330 -0.178800 0.061180
0.140370 0.033760 -0.138260
0.136720 0.021680 -0.068910
-0.036950 -0.151510 -0.078340
0.133990 0.012680 0.000060
0.066000 -0.055730 0.107370
0.056390 -0.066220 0.104190
0.000290 -0.120860 -0.087630
0.091550 -0.029720 -0.115260
-0.068950 -0.183140 -0.001880
0.134030 0.012810 -0.080070
0.049950 -0.075460 -0.101390
-0.001300 -0.124780 0.086440
-0.068720 -0.183870 0.036340
0.072220 -0.053510 -0.108050
0.131480 0.004420 -0.048510
0.130400 0.000850 -0.034020
-0.057150 -0.176080 0.076970
0.083420 -0.045140 0.110580
0.018580 -0.110330 0.090820
-0.019920 -0.145550 0.080150
-0.014250 -0.140840 -0.081580
0.130920 0.002540 -0.088880
-0.067540 -0.187780 -0.039790
0.128630 -0.005010 0.009090
0.128730 -0.004680 0.033050
-0.062300 -0.184220 -0.074500
-0.066760 -0.190360 -0.016130
0.129850 -0.000980 -0.111110
0.126510 -0.011990 -0.048940
0.126990 -0.010430 -0.069610
0.109670 -0.024520 -0.122900
0.129400 -0.002440 -0.128100
-0.068860 -0.194420 0.071410
0.069670 -0.070170 0.103000
0.126490 -0.012050 -0.088510
-0.065280 -0.195230 0.043330
0.124210 -0.019580 0.037460
0.124230 -0.019510 0.058290
-0.064710 -0.197100 -0.002160
0.123300 -0.022600 -0.038700
0.060120 -0.084440 0.098670
0.003570 -0.138960 -0.082150
0.123030 -0.023480 -0.055600
0.071820 -0.073730 -0.101920
0.122190 -0.026260 0.011440
0.022440 -0.123560 -0.086820
-0.021640 -0.164320 -0.074460
0.092490 -0.055470 -0.113520
0.121600 -0.028200 0.086390
0.120000 -0.033460 -0.025540
0.120490 -0.031850 0.063330
-0.008640 -0.155730 0.077070
0.045960 -0.107130 -0.091800
0.119090 -0.036490 0.042200
0.121230 -0.029420 -0.108010
-0.061010 -0.201950 -0.069120
0.006710 -0.145110 0.080280
0.118490 -0.038460 -0.057810
-0.067260 -0.208710 -0.057700
-0.027040 -0.177020 0.070610
-0.042860 -0.190180 0.066620
-0.061380 -0.208080 0.030130
-0.065950 -0.213050 0.002160
0.005400 -0.152090 -0.078170
0.116500 -0.045010 -0.076740
-0.066160 -0.212350 0.055420
0.114600 -0.051300 -0.023770
0.090840 -0.071180 0.108760
0.037910 -0.125120 0.086340
0.070220 -0.094120 0.095740
0.115890 -0.046100 -0.116360
0.114240 -0.052480 -0.090210
-0.064270 -0.218600 -0.041250
0.088650 -0.079850 -0.106130
-0.045370 -0.203500 0.066910
-0.012880 -0.178290 -0.070230
0.105720 -0.067250 0.086290
0.076080 -0.098340 -0.094460
-0.062970 -0.222860 -0.009890
0.109280 -0.068840 -0.028120
0.109380 -0.068500 0.036130
0.110230 -0.065700 -0.074980
0.090270 -0.083940 0.104890
-0.032870 -0.198250 -0.064180
0.108410 -0.071710 0.011510
0.021130 -0.153040 -0.077880
0.110450 -0.064970 -0.108790
-0.051290 -0.215690 0.064960
0.041850 -0.136960 -0.082750
0.033730 -0.144530 0.080460
0.106250 -0.078860 -0.052060
0.066020 -0.118430 -0.088370
0.104600 -0.084300 0.060100
-0.060320 -0.231620 0.024110
0.017630 -0.166260 0.073870
-0.028120 -0.206100 0.061800
0.070960 -0.117920 0.093100
0.102240 -0.092080 -0.016910
0.102110 -0.092490 -0.059860
0.101430 -0.094760 0.015320
-0.055350 -0.232930 -0.021270
-0.059920 -0.235810 -0.057180
0.059590 -0.133360 0.083840
0.085500 -0.108150 0.097560
0.016170 -0.173940 -0.071550
0.101910 -0.093160 0.098660
-0.004760 -0.195090 -0.065130
-0.037080 -0.222550 -0.062880
0.049320 -0.148500 0.079260
0.000310 -0.192530 0.065910
0.098600 -0.104080 0.078320
0.082760 -0.118690 -0.094360
0.097350 -0.108210 0.025410
0.097480 -0.107770 -0.044030
-0.050100 -0.237080 -0.041480
0.096730 -0.110260 -0.008160
-0.044860 -0.233410 0.059740
0.060240 -0.143580 -0.080750
0.096320 -0.111620 -0.028690
0.071380 -0.132530 -0.090160
0.095920 -0.112920 0.046830
-0.038970 -0.232930 0.014180
0.096260 -0.111780 -0.085990
-0.007520 -0.209960 -0.061190
-0.034300 -0.232930 0.033390
0.069080 -0.142580 0.087120
0.092170 -0.125290 -0.010080
-0.023790 -0.225740 0.061910
-0.010440 -0.214900 0.065200
0.093090 -0.122260 0.085290
0.091050 -0.129000 0.022580
0.035640 -0.178570 -0.070140
-0.014050 -0.221300 -0.063260
0.011360 -0.200680 0.063440
-0.026830 -0.232930 -0.041630
-0.047770 -0.249970 0.019000
0.058630 -0.160130 0.081800
-0.029020 -0.237080 -0.027070
-0.028410 -0.237080 -0.010470
0.041540 -0.176960 0.070630
0.085170 -0.135890 0.089150
0.089080 -0.135480 -0.042510
0.088510 -0.137360 -0.020600
0.088660 -0.136870 0.058370
0.055570 -0.167640 -0.074320
0.007770 -0.210000 -0.061310
-0.048690 -0.256500 0.007310
0.087550 -0.140530 -0.075630
-0.018110 -0.237080 0.023030
-0.036380 -0.251120 -0.036680
-0.037110 -0.252800 0.035210
-0.006550 -0.232930 -0.041340
-0.006430 -0.232930 0.055840
0.082750 -0.156390 -0.039770
0.082160 -0.158310 0.015040
0.082690 -0.156580 -0.066060
0.053380 -0.182850 0.074910
-0.001840 -0.232930 -0.000680
-0.037540 -0.260970 0.013850
0.004890 -0.226050 0.061820
-0.000170 -0.232930 0.018460
0.080510 -0.163770 -0.027350
-0.004550 -0.237080 0.040020
-0.038770 -0.266260 -0.007960
0.005400 -0.230110 -0.060590
0.079470 -0.167180 -0.012890
0.078820 -0.169350 0.000030
0.049250 -0.197710 0.070410
0.011090 -0.232930 0.046860
0.015300 -0.232930 0.016030
0.075590 -0.180000 0.048190
0.010300 -0.237080 -0.024310
0.074020 -0.185190 0.029220
-0.008840 -0.254920 0.049210
0.026770 -0.226930 -0.061550
-0.028300 -0.272160 -0.029330
0.005900 -0.244840 -0.050250
0.073010 -0.188510 -0.027640
0.073270 -0.187660 0.062380
0.024350 -0.232930 0.058120
0.025480 -0.232930 0.033500
0.068590 -0.195820 -0.070980
-0.036870 -0.285590 -0.015420
0.021020 -0.239640 -0.042660
0.030350 -0.232930 -0.036230
0.051300 -0.215590 0.064990
0.062340 -0.210370 0.028750
0.037480 -0.232930 0.015310
0.064630 -0.207920 0.067310
0.037760 -0.232930 -0.021290
0.067620 -0.206300 0.054580
-0.020850 -0.279980 0.035210
0.054090 -0.218180 -0.064200
0.066940 -0.208540 0.016720
0.064540 -0.211030 0.001480
0.040180 -0.232930 0.001000
-0.037330 -0.294820 -0.000670
-0.003380 -0.268730 -0.039700
0.065720 -0.212570 -0.021300
0.066160 -0.211100 -0.061370
-0.005870 -0.271960 0.039950
0.043310 -0.232930 -0.044460
0.062950 -0.221700 -0.012210
0.058050 -0.227500 0.061380
0.053900 -0.232930 -0.018240
0.048100 -0.236710 0.059740
0.061040 -0.227990 0.043640
-0.025610 -0.298560 -0.024320
0.027850 -0.257820 -0.039090
0.040590 -0.248750 -0.031110
0.059550 -0.233420 -0.044690
-0.024120 -0.302250 0.022450
0.058010 -0.237080 0.004150
0.034310 -0.260970 -0.021260
0.017100 -0.275060 0.036720
0.049910 -0.248810 0.012430
0.012030 -0.279740 -0.038820
-0.002770 -0.293010 0.037590
0.040660 -0.259090 0.023650
0.041190 -0.260970 0.009130
0.043530 -0.260970 -0.006040
-0.015870 -0.315100 0.009690
-0.008570 -0.311230 -0.022660
0.033130 -0.278740 0.023320
0.021550 -0.289580 -0.032300
0.037610 -0.283790 -0.013670
-0.002150 -0.317700 -0.012590
-0.000900 -0.316890 0.014770
-0.010480 -0.326750 0.013680
0.034540 -0.292320 0.015100
-0.012060 -0.333120 -0.013810
0.031720 -0.300130 -0.012110
0.030250 -0.304940 0.003690
0.011680 -0.321370 -0.007530
0.002290 -0.337480 -0.017550
0.013750 -0.341430 -0.008460
-0.004690 -0.355370 -0.001270
-0.014070 -0.372950 -0.001090
0.008780 -0.360300 0.007260
0.008720 -0.371180 -0.011140
-0.005220 -0.392560 0.008660
0.010790 -0.382250 0.004900
-0.006610 -0.405510 0.003590
-0.003750 -0.417690 -0.003310
