0.577298 0.222150 -0.382125
0.421235 -0.195408 -0.037031
0.424256 -0.195408 -0.072829
0.453431 0.222150 0.168591
0.421328 0.157117 -0.131605
0.409177 0.157117 -0.085352
0.720109 -0.306194 0.458870
0.526153 -0.165790 0.362536
0.564494 0.157117 0.412027
0.399747 0.157117 -0.017951
0.671962 -0.281648 -0.446148
0.428915 0.157117 -0.188830
0.456012 -0.165790 0.256804
0.730734 -0.395388 0.402438
0.422014 0.222150 0.091551
0.730734 -0.374836 -0.424820
0.400239 -0.165790 -0.087699
0.665700 -0.350284 0.401288
0.442672 -0.195408 0.219541
0.410836 0.157117 0.159379
0.423808 0.222150 -0.127394
0.429887 -0.195408 -0.188646
0.689309 -0.383840 0.393832
0.467574 -0.195408 -0.278095
0.467195 -0.165790 0.296078
0.530915 -0.185277 -0.381110
0.391777 0.157117 0.071109
0.477536 0.222150 0.279485
0.417553 -0.165790 0.183831
0.474362 0.157117 -0.323164
0.729627 -0.349273 0.458870
0.665700 -0.383786 -0.383083
0.447476 -0.195408 -0.251791
0.588399 0.173409 0.458870
0.537617 0.222150 0.383605
0.388169 -0.165790 0.105245
0.401927 -0.195408 0.142992
0.445884 -0.165790 -0.287678
0.443555 -0.195408 0.264977
0.482249 -0.165790 0.352321
0.403513 0.222150 0.135667
0.507004 -0.195408 0.384129
0.454519 0.222150 -0.286709
0.422216 0.157117 0.266589
0.433363 0.222150 0.246224
0.367613 -0.165790 0.068023
0.496860 0.157117 -0.393644
0.462720 -0.165790 -0.343858
0.368689 0.157117 -0.121636
0.379446 0.222150 -0.060138
0.730734 -0.447287 -0.408290
0.513707 0.157117 0.422104
0.665700 -0.355959 0.449441
0.665700 -0.387554 0.424117
0.464886 0.222150 0.328818
0.361767 -0.195408 0.006058
0.692572 -0.458787 -0.381110
0.534884 0.186817 -0.446148
0.670617 -0.378492 -0.446148
0.383865 -0.195408 0.183794
0.730734 -0.422058 0.448515
0.397073 0.222150 0.200722
0.510332 0.157117 -0.435331
0.665700 -0.427104 -0.399821
0.553507 0.222150 0.454337
0.480339 0.222150 0.370323
0.673497 -0.441630 0.393832
0.391291 -0.165790 0.243972
0.694881 -0.394088 0.458870
0.390705 -0.195408 0.225165
0.415083 0.222150 -0.271710
0.497633 0.222150 0.404707
0.354413 -0.195408 -0.113162
0.406658 -0.165790 -0.299576
0.415368 0.157117 0.321915
0.458070 0.157117 -0.392601
0.451547 0.157117 0.385867
0.330572 0.157117 0.045437
0.356076 0.222150 -0.105363
0.416287 0.157117 -0.340089
0.425812 -0.165790 -0.353095
0.346386 -0.195408 0.132400
0.329242 0.157117 -0.099462
0.482442 0.157117 0.441316
0.433508 -0.195408 0.360198
0.391179 -0.195408 -0.283802
0.354250 0.157117 -0.218957
0.366531 -0.165790 -0.248954
0.391665 -0.195408 0.292842
0.421556 0.222150 -0.331819
0.345837 0.157117 0.204971
0.718666 -0.518315 -0.385206
0.387210 -0.165790 0.309287
0.466886 0.222150 -0.407958
0.323050 -0.195408 0.074672
0.315715 -0.165790 -0.086771
0.386560 0.222150 0.279971
0.320055 0.157117 -0.131666
0.375439 0.222150 -0.257766
0.351627 0.222150 -0.192751
0.371132 0.157117 0.296752
0.307736 0.157117 -0.066657
0.314244 -0.195408 -0.019397
0.472152 0.180813 -0.446148
0.312878 -0.195408 -0.055647
0.686080 -0.452317 0.458870
0.710930 -0.518315 0.403528
0.331939 0.222150 0.145506
0.321495 0.222150 -0.090111
0.350654 -0.195408 0.245417
0.482541 0.216791 0.458870
0.315895 -0.195408 0.153906
0.295695 0.157117 0.096457
0.315842 -0.165790 -0.186952
0.364351 -0.165790 -0.322958
0.290959 -0.165790 0.076438
0.301894 0.222150 0.043604
0.666908 -0.478422 -0.446148
0.378555 -0.165790 -0.355457
0.306516 -0.195408 -0.146493
0.665700 -0.480398 0.447104
0.337956 0.157117 0.282201
0.326912 0.157117 -0.257316
0.330991 -0.165790 0.269578
0.277493 -0.165790 -0.011835
0.343873 0.157117 -0.314504
0.696240 -0.518315 -0.439994
0.274276 0.157117 0.065059
0.294200 0.222150 0.094063
0.441664 0.194477 0.458870
0.384142 0.157117 0.399090
0.283958 -0.165790 0.158985
0.370811 -0.165790 0.377646
0.336207 0.222150 -0.276884
0.263108 0.157117 -0.008118
0.275476 -0.165790 -0.123878
0.295626 0.157117 0.221774
0.308907 0.222150 -0.211824
0.279741 0.222150 -0.071797
0.354832 0.222150 0.329578
0.372249 -0.192849 -0.381110
0.329200 0.157117 0.323345
0.422702 0.222150 0.444758
0.302967 0.157117 0.268147
0.253636 0.157117 0.026440
0.283491 0.222150 -0.152179
0.252037 -0.165790 0.034141
0.347557 0.157117 -0.373417
0.279192 0.222150 0.147896
0.300307 -0.195408 0.269764
0.249947 -0.195408 -0.010400
0.258166 0.157117 -0.161413
0.253922 -0.195408 -0.092243
0.288804 0.157117 -0.273494
0.252187 0.157117 0.149274
0.243299 -0.165790 0.088634
0.288436 -0.195408 -0.255155
0.262424 -0.195408 0.166530
0.366876 0.222150 -0.401192
0.256880 0.222150 -0.101879
0.312002 -0.165790 0.334984
0.264086 -0.165790 0.215075
0.305187 -0.195408 0.312350
0.243974 0.222150 -0.030391
0.265786 -0.195408 -0.217181
0.331691 -0.195408 -0.377286
0.235290 0.157117 -0.133770
0.349715 0.222150 0.401310
0.291728 -0.195408 -0.309904
0.289801 -0.165790 -0.323305
0.226934 -0.195408 -0.068483
0.280202 0.157117 -0.314717
0.232777 -0.195408 0.130711
0.264008 0.157117 0.281282
0.216959 0.157117 0.107933
0.357460 0.194577 -0.446148
0.231763 0.222150 0.114571
0.209490 0.157117 0.063946
0.240996 -0.165790 -0.233808
0.227105 -0.165790 -0.184050
0.263957 0.222150 0.260988
0.211499 -0.195408 -0.029757
0.208901 -0.165790 0.101835
0.209305 -0.195408 0.044021
0.296057 0.157117 -0.384774
0.304435 -0.175263 0.393832
0.311829 0.222150 0.384833
0.223508 0.157117 0.209884
0.232349 -0.195408 0.211780
0.196718 -0.165790 -0.019591
0.202553 -0.165790 -0.099541
0.209896 0.222150 0.013808
0.199136 0.157117 -0.109675
0.283604 -0.165790 -0.371414
0.221102 0.222150 -0.159022
0.240548 -0.195408 0.267640
0.188348 0.157117 -0.060004
0.219635 0.222150 0.181611
0.335390 0.202891 0.458870
0.218482 -0.165790 0.240064
0.265954 0.157117 -0.365774
0.194087 0.157117 0.156368
0.265526 -0.195408 -0.348855
0.190523 -0.195408 0.096045
0.275360 0.222150 -0.364655
0.263412 -0.195408 0.359177
0.231980 0.157117 -0.312637
0.235041 -0.165790 -0.318198
0.172634 -0.165790 -0.073165
0.183393 0.222150 0.038627
0.307805 0.172606 0.458870
0.184495 0.222150 -0.074283
0.252550 0.157117 0.369969
0.244832 0.222150 0.324484
0.183970 0.222150 -0.109649
0.175014 -0.195408 0.127790
0.176338 -0.165790 0.172178
0.164708 -0.165790 -0.120904
0.175540 0.157117 0.191799
0.156660 -0.165790 0.067290
0.152899 -0.165790 -0.008197
0.188263 -0.195408 -0.224053
0.191631 0.222150 0.211654
0.194177 0.222150 -0.224981
0.265990 0.157117 -0.431389
0.290879 0.222150 0.445703
0.202394 -0.165790 0.296276
0.261944 0.222150 -0.402575
0.159313 0.222150 0.009903
0.173491 0.222150 0.160734
0.185785 -0.165790 -0.266249
0.266267 0.157117 0.449051
0.155007 0.222150 0.070451
0.216973 0.157117 0.361285
0.171209 -0.165790 0.235075
0.145704 -0.195408 -0.047819
0.195503 -0.165790 -0.309347
0.163299 0.222150 -0.149908
0.167613 -0.195408 0.202170
0.223431 -0.165790 0.380186
0.163593 0.157117 0.226899
0.133211 0.157117 0.026198
0.222117 0.222150 -0.351647
0.137622 -0.195408 0.034835
0.134792 0.157117 0.103933
0.198331 0.157117 -0.342595
0.130124 0.157117 0.063745
0.150299 -0.195408 0.160345
0.129351 0.157117 -0.064987
0.149155 0.222150 0.118641
0.134651 -0.165790 0.109693
0.145802 0.222150 -0.116203
0.137254 -0.195408 -0.125529
0.155088 0.157117 0.261581
0.129558 0.157117 -0.162096
0.193697 -0.195408 0.347424
0.135156 0.157117 0.193538
0.144069 -0.195408 -0.220017
0.107234 -0.165790 0.024805
0.177499 0.157117 0.353147
0.217801 0.222150 0.406331
0.132543 -0.165790 0.216954
0.106628 -0.165790 0.067115
0.133235 0.222150 -0.177931
0.210903 0.222150 -0.401475
0.102977 -0.165790 -0.072391
0.194114 0.157117 -0.410136
0.186691 -0.165790 0.392710
0.195250 0.157117 0.414188
0.145554 0.222150 0.254317
0.118687 -0.195408 0.180648
0.093824 -0.165790 -0.005097
0.105661 0.222150 0.002176
0.132995 0.157117 -0.272578
0.105237 0.222150 -0.032175
0.145039 0.157117 0.309241
0.127508 -0.165790 -0.251717
0.127165 -0.165790 0.250976
0.175184 -0.166756 -0.381110
0.157724 0.222150 0.310332
0.113847 -0.165790 -0.209207
0.220590 0.197717 0.458870
0.134404 0.222150 -0.248248
0.211486 0.203497 -0.446148
0.153981 -0.165790 0.349133
0.182490 0.222150 0.384723
0.083360 0.157117 -0.050252
0.107765 0.222150 0.148383
0.114828 -0.195408 0.215072
0.142614 -0.165790 -0.329668
0.109737 0.157117 -0.241230
0.167200 -0.195408 0.379743
0.076002 0.157117 0.019318
0.083235 -0.195408 0.040167
0.163701 0.157117 0.396341
0.091462 -0.195408 0.133291
0.123185 -0.195408 -0.274968
0.090730 0.157117 -0.186386
0.079992 -0.195408 -0.046033
0.089709 0.157117 0.192690
0.120076 -0.165790 -0.299577
0.082827 0.222150 0.035886
0.137030 0.222150 -0.325956
0.147488 0.157117 -0.389105
0.093290 0.222150 -0.195806
0.129927 -0.195408 -0.340348
0.135871 -0.195408 0.356841
0.075855 -0.165790 -0.176281
0.113017 0.222150 -0.299611
0.079753 0.222150 0.182679
0.050714 -0.165790 0.048269
0.112230 0.157117 -0.347540
0.168310 0.179048 0.458870
0.061450 -0.165790 0.162658
0.048866 0.157117 0.102932
0.062625 0.222150 -0.109706
0.046926 -0.165790 0.083923
0.153493 0.222150 -0.427399
0.111109 -0.165790 -0.363047
0.086662 -0.195408 -0.287290
0.040023 -0.165790 -0.090199
0.081916 0.222150 -0.255625
0.050965 -0.195408 -0.140283
0.065107 -0.165790 -0.238956
0.048898 0.222150 -0.075198
0.142272 0.157117 0.446605
0.060661 -0.165790 0.229148
0.070263 0.157117 0.272374
0.088554 -0.195408 0.308872
0.056380 0.222150 -0.160658
0.031844 -0.165790 -0.029471
0.124014 0.222150 0.387301
0.154479 0.222150 0.450282
0.026294 0.157117 -0.019580
0.025071 0.157117 0.035434
0.040485 0.157117 0.178465
0.050514 -0.195408 0.198690
0.112440 0.157117 0.410141
0.031238 -0.195408 -0.070518
0.033735 0.222150 -0.018275
0.066594 -0.165790 0.292486
0.031172 0.157117 -0.163090
0.109256 0.222150 -0.386693
0.087121 0.157117 0.370783
0.038301 0.157117 0.215220
0.051070 -0.195408 -0.240071
0.085569 0.222150 -0.339086
0.029171 0.222150 0.108372
0.057479 0.157117 -0.303181
0.023626 -0.195408 0.116180
0.048608 -0.195408 0.255404
0.024487 -0.165790 0.174888
0.070926 -0.195408 0.341552
0.017555 -0.195408 -0.124082
0.039578 -0.165790 0.268999
0.039036 0.222150 -0.233395
0.060586 0.157117 -0.346863
0.035817 0.157117 0.273999
0.077172 -0.181817 0.393832
0.104907 0.200061 -0.446148
0.064556 0.222150 0.342469
-0.003901 -0.165790 -0.089539
0.014904 0.222150 0.154166
0.003015 0.222150 0.039235
-0.003769 -0.195408 0.011444
0.066828 -0.192180 -0.381110
0.011696 -0.195408 0.215144
0.028616 0.222150 -0.265469
0.076064 0.222150 0.401176
0.001974 -0.165790 -0.206085
0.020585 -0.195408 -0.262271
0.039802 0.222150 0.311352
0.067538 0.157117 -0.418648
-0.023367 0.157117 0.033528
-0.016406 -0.195408 -0.058753
0.002062 0.157117 -0.239802
0.079751 0.157117 0.457587
0.071914 0.222150 -0.417249
-0.008083 0.157117 0.221227
-0.020734 0.222150 -0.046775
0.042026 0.222150 -0.355662
-0.006927 0.222150 -0.215674
0.013648 -0.195408 -0.314820
-0.005795 0.157117 -0.271977
-0.013028 -0.165790 -0.242455
-0.041063 -0.165790 0.035632
-0.034093 0.157117 0.147980
0.035504 -0.195408 0.386600
-0.024123 -0.195408 -0.181619
-0.049269 0.157117 0.011401
-0.032747 0.222150 -0.100304
0.014581 -0.165790 -0.362717
-0.044339 -0.165790 0.118699
-0.027314 0.222150 0.167223
-0.012827 -0.195408 -0.268621
-0.009310 -0.165790 0.307957
0.055296 0.200381 0.458870
-0.049945 -0.165790 -0.126120
0.023225 0.157117 0.411238
0.010000 -0.195408 0.362067
0.039793 0.178115 -0.446148
-0.057551 -0.165790 -0.087013
0.009600 0.222150 0.357949
0.007021 0.157117 -0.390471
-0.045336 0.222150 -0.171802
-0.058736 0.222150 0.082518
-0.061564 -0.165790 0.152845
-0.049222 -0.195408 -0.208879
-0.066974 -0.195408 0.084830
-0.048740 -0.195408 0.213950
-0.004127 -0.165790 0.393802
-0.070088 0.222150 -0.053954
-0.062423 -0.165790 0.207088
-0.058380 0.157117 0.232951
-0.072604 0.222150 0.025212
-0.025228 0.222150 0.319846
-0.066427 0.222150 -0.133533
-0.068318 -0.165790 -0.214738
-0.064305 0.222150 -0.205300
-0.051327 -0.165790 0.305067
-0.089770 -0.195408 0.012805
-0.033739 -0.195408 -0.346651
-0.052182 0.222150 -0.267503
-0.077811 -0.195408 0.176166
-0.057160 -0.165790 -0.293268
-0.086296 0.157117 -0.167143
-0.041991 -0.165790 0.363334
-0.045966 0.222150 -0.323395
-0.080444 0.222150 0.191136
-0.024365 0.157117 -0.423483
-0.010704 0.222150 0.434511
-0.109121 0.157117 -0.085807
-0.041430 -0.195408 0.380848
-0.113416 -0.165790 0.027168
-0.104494 0.222150 0.016256
-0.112445 -0.195408 -0.023271
-0.107240 0.222150 -0.044617
-0.050839 0.157117 -0.395024
-0.118061 -0.165790 0.087970
-0.019591 0.200077 0.458870
-0.087935 -0.195408 -0.264819
-0.085427 0.222150 0.255118
-0.105682 0.222150 0.151537
-0.124750 0.157117 0.088644
-0.128149 0.157117 0.021523
-0.052715 0.222150 -0.374878
-0.107619 -0.165790 -0.209516
-0.107215 0.222150 -0.171442
-0.051904 0.222150 0.385894
-0.075369 0.222150 0.316919
-0.123016 -0.165790 -0.155525
-0.114651 -0.165790 0.218690
-0.128303 0.157117 0.146469
-0.104632 0.222150 -0.233282
-0.121458 0.157117 -0.204144
-0.075583 -0.195408 -0.360283
-0.113238 -0.195408 0.243641
-0.132046 0.222150 -0.088473
-0.099672 0.157117 -0.326579
-0.135609 0.157117 -0.164511
-0.140712 -0.165790 -0.125822
-0.146869 0.157117 -0.088811
-0.111590 -0.165790 -0.292761
-0.121228 -0.165790 0.258367
-0.083174 0.222150 0.367902
-0.150402 -0.165790 0.100394
-0.108360 -0.195408 0.310901
-0.145199 0.157117 0.176981
-0.091282 0.157117 -0.390761
-0.135464 -0.195408 -0.202881
-0.157970 0.157117 -0.056765
-0.157884 -0.165790 0.025434
-0.147836 -0.195408 0.131272
-0.060487 0.205731 0.458870
-0.105321 0.222150 -0.326690
-0.158106 -0.195408 0.009467
-0.098577 -0.171297 -0.381110
-0.134243 0.157117 0.281152
-0.153840 -0.195408 -0.146326
-0.160447 0.222150 0.011825
-0.147607 0.157117 0.242833
-0.145951 0.222150 -0.195495
-0.109037 -0.165790 0.378944
-0.167247 0.157117 -0.120245
-0.149962 -0.195408 0.216625
-0.168740 -0.195408 0.067334
-0.139870 -0.195408 -0.275968
-0.091846 0.157117 0.444350
-0.126762 0.222150 0.309565
-0.131984 0.157117 -0.338254
-0.128377 -0.165790 -0.347272
-0.181775 0.157117 0.034369
-0.095823 0.222150 0.427066
-0.114379 0.157117 0.414764
-0.172395 0.157117 -0.204575
-0.158860 -0.165790 0.270683
-0.143958 -0.195408 -0.311403
-0.165480 0.222150 0.209663
-0.148378 -0.195408 0.314440
-0.136520 0.157117 0.375720
-0.194012 -0.165790 -0.068294
-0.179861 -0.195408 0.166964
-0.195539 0.157117 0.108336
-0.185105 0.222150 -0.127642
-0.191093 0.222150 0.063498
-0.183841 -0.165790 -0.209024
-0.116545 0.169756 -0.446148
-0.137935 0.222150 -0.365409
-0.205715 0.157117 -0.023680
-0.130561 0.222150 0.402086
-0.203798 0.157117 -0.129999
-0.211514 -0.165790 0.009683
-0.182438 -0.195408 -0.244975
-0.204652 -0.195408 -0.108033
-0.198463 0.222150 0.126701
-0.133162 0.222150 -0.413039
-0.202336 0.157117 -0.187594
-0.211580 -0.195408 0.051703
-0.174576 0.157117 -0.324391
-0.169726 -0.165790 0.339415
-0.155034 -0.188681 -0.381110
-0.168466 0.157117 0.355883
-0.147670 0.157117 -0.419361
-0.182861 0.222150 0.265378
-0.212111 -0.165790 -0.156448
-0.146235 0.157117 0.428461
-0.165372 0.157117 -0.374786
-0.209087 -0.195408 0.190635
-0.159281 0.222150 0.380222
-0.188736 0.157117 0.319955
-0.226069 -0.165790 -0.098719
-0.229763 -0.165790 0.094294
-0.198960 0.222150 -0.263410
-0.220512 -0.165790 -0.219624
-0.241432 0.157117 0.058910
-0.149681 0.198213 0.458870
-0.224179 0.157117 -0.223571
-0.193541 -0.195408 -0.338761
-0.226596 -0.165790 0.213449
-0.192926 -0.165790 -0.357811
-0.195460 0.222150 -0.321085
-0.229464 0.157117 0.223692
-0.249337 -0.165790 -0.019271
-0.224318 -0.195408 0.230450
-0.185607 0.157117 0.406429
-0.244742 0.222150 -0.067975
-0.225287 0.157117 0.278228
-0.233276 0.222150 0.196706
-0.248064 -0.195408 -0.115711
-0.256294 0.157117 -0.108581
-0.202843 -0.165790 0.375446
-0.178783 0.222150 -0.420150
-0.233434 0.157117 -0.267163
-0.178823 0.174248 -0.446148
-0.259104 -0.165790 -0.105565
-0.235240 -0.195408 -0.246754
-0.184513 0.157117 0.444412
-0.246092 -0.195408 -0.194201
-0.235120 0.222150 0.235349
-0.265260 -0.165790 0.046054
-0.241422 0.222150 -0.203407
-0.266263 0.157117 0.096201
-0.254492 -0.195408 0.165216
-0.248634 -0.165790 -0.252737
-0.269872 -0.195408 -0.017272
-0.232321 0.222150 -0.289948
-0.215974 -0.181038 -0.381110
-0.264872 0.222150 -0.093914
-0.216854 0.157117 0.390768
-0.260328 0.157117 -0.216958
-0.269324 -0.165790 -0.167020
-0.196739 0.222150 0.434014
-0.274754 -0.195408 0.113723
-0.234617 -0.165790 -0.358422
-0.268460 0.157117 0.219517
-0.236054 0.222150 0.324895
-0.286514 -0.165790 0.075718
-0.256102 -0.165790 -0.295609
-0.285283 -0.165790 0.149455
-0.235987 0.222150 -0.353417
-0.230295 -0.195408 0.389650
-0.296687 0.157117 -0.053574
-0.278096 -0.165790 0.219063
-0.256873 0.157117 0.327437
-0.232090 0.157117 -0.422979
-0.271584 -0.195408 0.258317
-0.267371 -0.165790 0.309616
-0.230663 0.222150 -0.413473
-0.269922 -0.195408 -0.295702
-0.298502 0.222150 -0.054242
-0.302775 0.157117 -0.128572
-0.281623 0.222150 -0.223827
-0.300371 0.157117 -0.167511
-0.264868 -0.195408 -0.329685
-0.304431 0.222150 0.101294
-0.308588 0.157117 0.161949
-0.314164 -0.195408 -0.045475
-0.320447 0.157117 -0.014378
-0.250012 0.157117 0.426028
-0.277983 0.222150 0.294021
-0.289483 0.157117 0.286337
-0.277243 0.157117 -0.344083
-0.318566 -0.165790 -0.115844
-0.313321 -0.165790 0.172942
-0.321427 -0.195408 0.023197
-0.256134 0.222150 0.398785
-0.307034 0.222150 -0.178518
-0.276290 -0.165790 -0.370489
-0.289884 -0.165790 -0.328163
-0.327267 -0.195408 -0.011738
-0.248823 0.178369 0.458870
-0.312186 -0.195408 -0.206205
-0.320209 0.222150 -0.109350
-0.286615 0.157117 0.355412
-0.287990 0.222150 -0.318190
-0.279863 0.222150 0.350668
-0.329263 -0.195408 -0.082946
-0.317101 0.157117 -0.238173
-0.284060 -0.195408 0.361853
-0.340087 0.157117 0.028403
-0.320334 0.222150 0.170181
-0.280058 -0.188735 0.393832
-0.342363 0.157117 -0.062268
-0.343044 -0.195408 0.050848
-0.289676 0.157117 0.395721
-0.320762 -0.195408 0.258613
-0.323647 0.222150 0.242992
-0.339040 0.157117 -0.207174
-0.346639 0.157117 -0.151263
-0.325273 -0.165790 -0.283227
-0.307934 -0.165790 -0.356416
-0.341405 0.222150 0.134220
-0.349478 0.222150 -0.014200
-0.285146 0.160214 -0.446148
-0.353163 -0.165790 0.177354
-0.348668 0.222150 -0.149765
-0.305215 0.222150 0.380218
-0.359953 -0.195408 0.099286
-0.359015 0.222150 -0.103090
-0.360756 -0.195408 -0.132679
-0.369677 0.157117 0.084157
-0.348530 0.222150 0.202685
-0.285728 0.220952 0.458870
-0.333115 0.157117 -0.341536
-0.356914 -0.165790 0.226733
-0.311284 0.157117 -0.421121
-0.364580 -0.195408 0.162114
-0.361697 -0.195408 -0.190919
-0.377068 0.157117 -0.097291
-0.375965 -0.165790 -0.114445
-0.355457 0.157117 -0.269096
-0.310979 0.222150 -0.407959
-0.334227 -0.195408 -0.360004
-0.348962 -0.195408 -0.302928
-0.387190 -0.165790 -0.051387
-0.386207 0.157117 -0.138214
-0.368958 0.222150 -0.215149
-0.354886 -0.165790 0.326574
-0.318919 0.185319 -0.446148
-0.341652 0.222150 -0.364219
-0.393531 -0.195408 0.050619
-0.390634 0.222150 -0.059750
-0.379929 -0.195408 0.215709
-0.370123 -0.195408 0.271434
-0.392295 0.157117 0.165005
-0.401037 -0.165790 0.023806
-0.348522 0.157117 -0.385563
-0.388808 0.222150 0.154500
-0.373806 -0.165790 -0.301145
-0.376279 0.222150 -0.259487
-0.328388 0.190358 0.458870
-0.403219 -0.165790 0.135165
-0.404786 0.157117 0.134602
-0.405574 -0.165790 -0.140841
-0.373962 0.222150 0.299543
-0.379277 0.157117 -0.322731
-0.412022 0.157117 -0.116456
-0.408247 0.222150 0.020014
-0.387099 -0.165790 0.288991
-0.376469 0.157117 0.340181
-0.391409 -0.195408 -0.247885
-0.393479 0.222150 0.214138
-0.356127 0.157117 -0.430396
-0.408127 0.157117 -0.210643
-0.424414 0.157117 -0.059215
-0.405052 0.157117 0.252276
-0.387694 -0.165790 -0.335608
-0.389357 -0.195408 0.320214
-0.420114 -0.195408 0.136869
-0.426791 -0.195408 0.025931
-0.428356 -0.195408 -0.029964
-0.401721 0.222150 0.255984
-0.412102 0.222150 -0.210037
-0.422537 -0.165790 0.219884
-0.362723 0.219606 -0.446148
-0.381819 0.222150 -0.384390
-0.395500 0.157117 0.370068
-0.434271 0.222150 0.082537
-0.415974 -0.195408 0.272219
-0.399497 -0.165790 0.367810
-0.418300 -0.195408 -0.272412
-0.448341 -0.165790 -0.000871
-0.444107 0.157117 0.128754
-0.437912 0.222150 -0.124455
-0.441617 -0.165790 0.175146
-0.416975 0.222150 -0.283271
-0.429410 0.157117 -0.273658
-0.443628 0.222150 0.132725
-0.449801 -0.195408 -0.116177
-0.433546 -0.165790 0.271242
-0.410992 0.222150 -0.341795
-0.452699 -0.195408 0.119959
-0.458663 0.157117 -0.103004
-0.441128 -0.165790 -0.279003
-0.461267 0.157117 0.168170
-0.467022 -0.195408 0.038667
-0.463010 0.222150 0.054841
-0.405713 0.157117 0.441067
-0.421993 0.222150 0.352124
-0.465353 0.157117 -0.159434
-0.468909 -0.195408 -0.054816
-0.457609 -0.195408 -0.195706
-0.412514 0.222150 -0.402874
-0.469036 -0.195408 0.149130
-0.433750 0.157117 0.376492
-0.460501 0.222150 0.204227
-0.440394 0.157117 -0.364966
-0.451211 -0.195408 -0.298085
-0.468528 -0.165790 -0.235108
-0.469961 0.157117 -0.233366
-0.480950 0.222150 0.000548
-0.469271 -0.195408 0.227854
-0.481183 -0.165790 -0.170222
-0.465483 -0.165790 0.278648
-0.480083 0.222150 -0.132401
-0.477134 -0.195408 0.193551
-0.492099 -0.165790 -0.072004
-0.483928 -0.195408 -0.141603
-0.453441 -0.195408 0.336224
-0.466695 0.157117 0.302678
-0.476336 0.222150 -0.211883
-0.471457 0.222150 -0.249832
-0.490325 0.222150 0.084348
-0.494499 -0.195408 0.079624
-0.493301 -0.165790 0.171588
-0.501450 0.157117 -0.108580
-0.481302 0.157117 0.268435
-0.473624 -0.195408 0.290444
-0.479656 -0.165790 -0.289776
-0.473668 -0.165790 0.322230
-0.487133 -0.195408 -0.259442
-0.461064 -0.195408 0.391565
-0.502212 -0.165790 -0.215836
-0.450705 0.183468 -0.446148
-0.520537 -0.165790 0.123880
-0.458353 0.157117 0.456003
-0.526224 0.157117 -0.085501
-0.525539 0.157117 0.098105
-0.528765 0.157117 -0.049200
-0.514422 -0.195408 0.180844
-0.521808 0.222150 0.042389
-0.522364 0.222150 0.090031
-0.519392 0.222150 0.134270
-0.519054 0.157117 -0.210067
-0.465081 0.222150 0.433978
-0.483629 0.157117 -0.401497
-0.492593 -0.165790 0.365274
-0.532288 -0.195408 -0.066065
-0.519526 0.222150 0.181658
-0.523616 -0.165790 0.207408
-0.501398 0.222150 -0.297562
-0.535283 -0.165790 -0.109132
-0.477007 0.157117 -0.436836
-0.491404 0.222150 0.355360
-0.535043 0.157117 0.137859
-0.507647 -0.195408 0.302411
-0.541903 0.157117 0.057296
-0.492520 -0.195408 -0.374262
-0.521868 0.222150 -0.203243
-0.494168 0.157117 0.393617
-0.509264 -0.165790 0.328749
-0.543365 -0.195408 0.025886
-0.509201 0.157117 -0.362821
-0.534155 -0.195408 -0.214434
-0.522667 0.157117 0.309923
-0.545174 -0.195408 0.141981
-0.533481 0.157117 -0.273044
-0.515479 -0.195408 -0.343519
-0.534515 -0.165790 0.271992
-0.562180 0.157117 0.009574
-0.516122 0.222150 -0.342923
-0.542738 -0.195408 0.225423
-0.559715 0.157117 -0.128538
-0.546597 0.157117 -0.240660
-0.560372 -0.195408 -0.082690
-0.533680 0.157117 -0.330181
-0.552647 0.222150 -0.162009
-0.568939 -0.165790 0.017053
-0.568378 0.157117 -0.074054
-0.563422 -0.165790 0.152138
-0.526043 0.157117 0.376801
-0.550457 -0.165790 -0.256657
-0.540239 -0.195408 -0.299620
-0.501653 0.208950 0.458870
-0.539970 -0.165790 -0.348042
-0.572052 0.222150 -0.082227
-0.514257 0.210115 -0.446148
-0.578761 0.222150 -0.022078
-0.584657 -0.165790 -0.086801
-0.587087 0.157117 0.071391
-0.542054 0.222150 0.356212
-0.584176 0.157117 0.176433
-0.555543 -0.195408 -0.329424
-0.577136 0.157117 0.237405
-0.530191 0.157117 0.451309
-0.545325 0.157117 -0.397056
-0.580163 -0.195408 -0.196024
-0.576524 0.222150 -0.203437
-0.568860 0.222150 -0.258083
-0.585918 0.157117 -0.194889
-0.541544 0.222150 0.395650
-0.581321 -0.165790 -0.239860
-0.601956 0.157117 -0.057704
-0.565707 0.157117 -0.351465
-0.606732 0.157117 0.107758
-0.561486 -0.172564 0.393832
-0.583782 0.157117 0.314300
-0.600255 0.222150 -0.153938
-0.607283 0.222150 0.081001
-0.611610 0.157117 0.155778
-0.614707 -0.195408 -0.043242
-0.618952 -0.165790 0.044400
-0.599631 -0.195408 0.231338
-0.618170 0.157117 -0.086786
-0.606629 -0.195408 0.181964
-0.615706 -0.165790 0.128958
-0.595086 -0.165790 0.288666
-0.616988 -0.195408 -0.079419
-0.622973 0.157117 -0.032039
-0.620053 -0.195408 0.005081
-0.624371 0.157117 0.021509
-0.626277 0.157117 0.061586
-0.595508 -0.165790 -0.316914
-0.591957 0.222150 0.304298
-0.597690 0.222150 -0.295297
-0.571757 0.164711 -0.446148
-0.568868 0.213719 -0.446148
-0.590317 -0.180504 -0.381110
-0.619799 0.222150 -0.184710
-0.629967 0.222150 -0.054861
-0.619051 -0.165790 -0.247368
-0.598299 0.157117 -0.363391
-0.593926 -0.168081 0.393832
-0.635118 -0.195408 -0.139671
-0.622631 0.222150 -0.227205
-0.635303 -0.165790 0.224194
-0.650958 -0.195408 0.032032
-0.622483 0.157117 0.339043
-0.645446 0.157117 -0.200583
-0.634007 0.222150 0.230750
-0.621046 -0.165790 0.351705
-0.656385 0.157117 0.112712
-0.621180 -0.165790 -0.372921
-0.655083 -0.165790 0.183693
-0.656752 0.157117 0.189706
-0.624015 0.222150 -0.347631
-0.664436 0.157117 -0.116487
-0.669887 0.157117 -0.045301
-0.649601 -0.195408 0.236885
-0.646139 0.157117 0.286399
-0.663841 -0.195408 0.102356
-0.669429 -0.165790 -0.070040
-0.628780 -0.195408 0.370149
-0.670476 -0.195408 -0.100227
-0.628707 0.222150 0.379636
-0.651250 0.157117 -0.313067
-0.673954 -0.165790 0.146109
-0.651257 -0.165790 -0.312872
-0.629559 0.222150 -0.398580
-0.622089 0.188048 -0.446148
-0.681382 -0.195408 -0.057978
-0.680565 0.222150 -0.005300
-0.672116 -0.165790 0.224310
-0.674469 -0.195408 0.183886
-0.662667 -0.195408 -0.276628
-0.636666 0.222150 0.420516
-0.651855 0.157117 0.391035
-0.699421 0.157117 -0.020954
-0.665307 -0.165790 -0.354125
-0.691435 -0.195408 -0.172754
-0.667627 0.157117 -0.375046
-0.705990 -0.195408 -0.025459
-0.682010 -0.165790 0.329992
-0.679571 0.222150 -0.311028
-0.712712 -0.165790 -0.093874
-0.703594 -0.165790 0.207080
-0.709073 -0.195408 -0.142621
-0.685164 -0.039014 -0.386317
-0.719840 0.157117 0.094584
-0.715652 0.222150 -0.006295
-0.716442 -0.165790 0.142258
-0.712191 0.222150 -0.114120
-0.686009 -0.115056 -0.381110
-0.703238 0.157117 -0.282412
-0.696818 -0.195408 -0.303067
-0.685164 -0.006818 0.414948
-0.728027 -0.165790 -0.052649
-0.706776 -0.195408 0.256530
-0.685164 -0.066188 0.417157
-0.685164 0.018121 -0.423672
-0.667031 0.206239 -0.446148
-0.685164 0.092354 0.417061
-0.723354 0.222150 -0.080415
-0.681267 0.157117 0.424825
-0.730127 -0.165790 -0.127209
-0.685164 0.137291 -0.424415
-0.727049 0.157117 0.181389
-0.685164 -0.180680 -0.410539
-0.685164 -0.035885 0.448379
-0.685164 0.010518 0.452664
-0.692671 0.222150 -0.362519
-0.685164 -0.073280 0.454273
-0.709225 0.157117 0.325798
-0.723149 0.157117 0.252814
-0.699885 -0.114955 0.393832
-0.690846 -0.210774 0.393832
-0.726158 -0.165790 0.241623
-0.681517 0.176267 0.458870
-0.738934 -0.195408 -0.093680
-0.693115 0.079046 -0.446148
-0.745442 -0.165790 0.014874
-0.709687 -0.165790 -0.357296
-0.723675 -0.195408 -0.263951
-0.745033 -0.165790 0.088715
-0.709339 -0.065147 0.393832
-0.721663 -0.165790 -0.306268
-0.686453 -0.316675 -0.381110
-0.750201 0.162741 0.029590
-0.734511 0.222150 -0.183501
-0.685164 -0.312321 0.395417
-0.738613 -0.165790 -0.209759
-0.736472 -0.195408 0.204004
-0.696090 0.222150 0.412333
-0.722460 0.222150 -0.282760
-0.685164 -0.269591 -0.430809
-0.750201 0.178194 -0.055639
-0.743803 0.222150 -0.125016
-0.750201 0.173167 -0.115004
-0.749978 0.157117 0.140251
-0.718843 0.028923 0.393832
-0.750201 0.217748 0.056236
-0.750201 0.216519 0.104091
-0.685164 -0.346033 -0.413301
-0.725016 -0.017540 0.393832
-0.729846 -0.195408 0.321989
-0.709245 -0.118472 -0.446148
-0.750201 0.210782 0.165609
-0.750201 -0.194271 -0.186070
-0.685164 -0.320105 0.440182
-0.747225 0.157117 -0.251337
-0.750201 0.166856 0.228259
-0.738276 0.222150 0.269443
-0.731043 -0.049889 -0.381110
-0.694027 -0.348326 0.393832
-0.713328 0.222150 -0.408905
-0.728930 -0.096318 0.393832
-0.734517 0.043007 -0.381110
-0.750201 -0.188565 0.248408
-0.750201 0.194542 -0.257766
-0.729659 0.150912 0.393832
-0.750201 -0.173748 -0.277456
-0.748206 0.157117 0.300110
-0.690172 -0.406446 0.393832
-0.750201 0.158923 -0.302505
-0.685164 -0.424934 -0.400949
-0.714338 0.222150 0.439965
-0.740025 0.120648 -0.381110
-0.725060 -0.066478 0.458870
-0.726957 -0.259201 -0.381110
-0.707490 -0.265840 0.458870
-0.720438 -0.290179 0.393832
-0.750201 0.216787 0.299424
-0.685164 -0.412933 0.435480
-0.732510 -0.055291 -0.446148
-0.750201 -0.179226 -0.332796
-0.729622 -0.291823 -0.381110
-0.750201 0.065728 0.397328
-0.750201 -0.110761 -0.391111
-0.685164 -0.469654 -0.410785
-0.748844 -0.195408 -0.364549
-0.750201 0.217001 0.350854
-0.736556 0.146676 -0.446148
-0.750201 -0.178137 0.380799
-0.750201 0.019368 0.422219
-0.750201 0.151676 -0.397560
-0.750201 -0.068578 0.421110
-0.738950 -0.109663 0.458870
-0.750201 -0.015304 0.433799
-0.750201 0.007033 -0.434469
-0.696773 -0.423134 -0.446148
-0.750201 0.083923 -0.435492
-0.686471 -0.458929 0.458870
-0.744030 0.222150 -0.424183
-0.750201 0.163044 0.426806
-0.726728 -0.371473 0.393832
-0.748832 0.113225 0.458870
-0.746810 0.146395 0.458870
-0.750201 -0.251041 0.397024
-0.750201 -0.224284 -0.412940
-0.750201 -0.153727 0.444494
-0.737520 -0.367225 -0.381110
-0.747040 0.215497 0.458870
-0.703517 -0.512495 -0.381110
-0.750201 -0.235016 0.450238
-0.739043 -0.325405 -0.446148
-0.750201 -0.272850 0.437698
-0.726408 -0.440469 0.393832
-0.750201 -0.336659 0.402014
-0.715389 -0.467406 -0.446148
-0.750201 -0.381219 -0.429130
-0.750201 -0.452114 -0.384764
-0.725999 -0.479467 0.458870
-0.744188 -0.518315 0.421348
-0.749144 -0.487236 -0.446148
